-145.854233 220.537872 200.239029 
-25.897236 274.602570 311.494598 
95.928139 263.707306 215.253616 
91.630920 265.128906 222.380310 
-39.466351 272.055481 332.070648 
-36.981667 272.584412 330.478729 
-65.091728 264.669617 445.481201 
-153.786163 213.709412 207.079803 
-153.829514 213.685593 202.279724 
80.217987 268.665527 197.429260 
87.466339 266.554169 196.236145 
81.269066 268.388031 190.575577 
-100.010864 250.786423 214.766998 
-42.163078 271.465637 325.813232 
-42.340874 271.470306 323.299072 
-45.000481 270.807892 323.440308 
-75.509087 260.976349 444.533386 
100.884666 261.907684 193.846817 
-163.608124 204.484970 194.892792 
-164.252258 203.763458 197.685165 
-162.820129 205.155823 200.897400 
-71.466820 263.051086 198.099518 
-35.041275 272.961945 319.024811 
-38.716064 272.243927 323.152985 
-34.042004 273.148651 323.930176 
248.629639 113.575768 19.013557 
101.014503 261.956726 178.246979 
101.087799 261.908203 182.440704 
102.475883 261.394745 180.295685 
-54.942886 267.891327 424.266876 
-60.316639 266.338348 421.435211 
-59.093067 266.621521 428.762817 
-149.199036 217.690521 190.738220 
-154.346466 213.167328 190.247482 
-92.723717 254.306976 198.782486 
-89.178535 255.914917 199.126022 
-46.020626 270.589630 334.285736 
-48.773228 269.880890 330.880890 
-48.703938 269.894958 339.898346 
105.561615 260.178864 178.026581 
-74.002892 261.623688 439.508484 
-69.845261 263.139923 439.056671 
-124.320198 236.490051 181.609451 
-121.755302 238.154739 186.492020 
-121.266258 238.504776 181.775894 
-169.960312 197.856354 208.670197 
-171.348801 196.283188 202.713318 
-172.325073 195.266357 207.526505 
-44.260956 270.970154 331.734131 
-43.174232 271.249695 333.027557 
108.443756 259.010345 171.971161 
107.529327 259.435181 168.901382 
104.186958 260.724243 172.230103 
-41.765553 271.614685 318.573944 
-39.452656 272.093628 313.805145 
-61.916485 265.716827 432.776215 
-69.196312 263.440765 431.814758 
-168.277557 199.609879 202.409012 
-166.046478 201.908035 200.872116 
-167.076141 200.847260 196.017319 
36.446266 276.282379 359.879028 
-149.716339 217.205704 168.070679 
-151.353638 215.727371 163.558487 
-152.477615 214.766663 165.019485 
-45.775558 270.649780 319.880798 
97.387154 263.293182 181.630981 
97.498856 263.210785 186.514511 
-146.112289 220.318558 181.912750 
-150.625931 216.437851 179.418884 
-68.511269 263.624878 437.209442 
-63.686028 265.180573 434.377563 
-103.060814 249.087021 199.778549 
-105.017853 248.081726 196.196854 
-107.805321 246.536072 197.683121 
-39.604237 272.035156 328.617371 
-68.634651 263.637634 427.263428 
88.963333 266.148956 186.661545 
90.053551 265.797028 189.122864 
93.011070 264.771149 187.296753 
-153.746750 213.676453 183.700516 
-152.764404 214.612625 188.076218 
81.812859 268.300476 179.051437 
82.976341 268.046661 181.456329 
-87.747932 255.996140 471.629639 
-90.658585 254.705872 465.952301 
-123.887741 236.945587 266.248627 
-122.520821 237.841980 261.566437 
-40.590279 271.936005 292.655457 
-86.772507 256.748749 406.668671 
-88.203339 256.114502 400.593933 
-89.648857 255.487854 408.575073 
-77.442604 260.506592 427.138733 
-76.675278 260.835602 425.281250 
-78.286766 260.170715 424.040680 
-23.973433 275.002655 268.414917 
-25.339153 274.786865 269.799103 
78.226768 269.200104 222.497620 
78.043510 269.263916 212.065811 
-160.090332 207.741287 163.982086 
-161.676834 206.215912 164.282654 
-161.314163 206.540298 172.230240 
-101.400307 250.034927 230.783340 
-11.240555 276.577789 244.847916 
-3.759546 277.200714 244.816666 
-6.504547 277.035797 237.402695 
-90.043579 254.963959 460.397461 
-88.813515 255.535492 462.113800 
-86.487343 256.517181 458.210632 
-175.282639 192.113358 340.702972 
-176.543915 190.646393 338.163025 
-176.607788 190.572662 343.457397 
-107.930367 246.476273 205.987335 
-11.562091 276.536530 257.416473 
-13.713308 276.344116 255.123260 
-17.866318 275.867310 254.060455 
-183.146744 182.697617 323.462585 
-182.212219 183.832306 327.838745 
-179.205994 187.542267 322.859833 
-99.508675 250.503220 466.954529 
-97.100914 251.686050 468.818359 
-96.875389 251.832321 463.558746 
-107.667519 246.681061 231.637390 
-185.288757 180.030518 342.061249 
-184.398972 181.203461 349.255157 
-183.758179 182.046616 344.019897 
-0.293187 277.455475 231.320297 
-5.524015 277.100708 230.889160 
-3.000522 277.262268 237.483673 
46.985367 275.496948 223.522476 
45.480804 275.649872 233.479889 
52.587891 274.651794 226.797455 
-115.335747 242.286316 304.337158 
-94.199890 253.075073 463.549286 
-97.709351 251.412323 458.099762 
-177.457520 189.563293 327.907013 
-175.711029 191.639771 322.438080 
-202.920319 154.244141 304.784119 
-202.480789 154.867279 308.626160 
-201.342300 156.851425 305.041565 
-42.237022 271.562927 218.034653 
-46.169609 270.650208 217.437790 
-28.950802 274.132172 261.586517 
-100.084587 250.271912 455.799652 
-101.878456 249.290878 458.889221 
68.308022 271.687805 195.335419 
68.645531 271.606018 189.177795 
-27.235350 274.509399 243.911270 
-30.159586 273.984100 244.413132 
-26.155697 274.660828 252.244812 
-50.023731 269.685577 217.681198 
-197.562485 162.736115 306.745697 
-197.946213 162.159515 299.437592 
-199.764511 159.385742 305.300323 
-95.217461 252.605988 445.571167 
-100.846031 249.851746 442.914948 
-99.161774 250.659897 448.480316 
-177.172882 189.972137 321.164734 
-178.269196 188.673187 317.945313 
-31.208391 273.730499 265.916382 
-35.679646 272.907623 257.526459 
-84.639870 257.842468 179.446793 
-85.467079 257.494110 187.206940 
-80.551872 259.527954 185.619598 
-80.919594 259.511047 287.507172 
-79.786606 259.957520 284.412018 
-84.907616 257.869415 285.914581 
-101.712807 249.421066 455.781158 
-175.773331 191.551300 318.684021 
40.286869 275.431427 429.096497 
-200.062271 158.943817 307.175110 
-175.033371 192.608582 306.269958 
-175.098251 192.423264 304.702942 
-121.256493 238.459442 170.113220 
-119.840576 239.381348 178.644943 
-116.714325 241.288651 170.610352 
107.892517 259.273895 175.935989 
109.548416 258.550323 175.007858 
-81.183517 258.816284 444.247009 
-80.885521 259.027496 439.383514 
-83.386871 258.004669 440.161316 
42.818836 275.367218 416.200806 
41.550373 275.529358 410.767548 
40.385036 275.637390 417.412903 
42.601883 275.246246 422.729187 
-172.108810 195.671570 319.735199 
-200.997894 157.463516 300.293518 
-202.064392 155.669769 299.560181 
-89.797028 255.109955 448.167847 
-90.805687 254.726944 441.692017 
-104.802902 248.127792 175.529739 
-106.626961 247.160065 181.773880 
-102.145142 249.548569 182.084320 
29.377455 276.667755 401.934692 
26.493355 276.818085 399.738922 
123.860580 251.931229 176.670547 
121.475227 253.102112 172.953979 
122.172676 252.752808 178.409225 
-171.543030 196.290543 309.391754 
-169.535202 198.433609 315.113495 
111.878578 257.341522 280.635620 
117.217758 254.961395 283.901276 
114.257729 256.344604 271.958130 
-90.550606 255.015717 424.472137 
-88.931778 255.719101 429.533386 
-84.521439 257.619781 425.933319 
31.217344 276.539154 405.266052 
33.408630 276.334961 409.187714 
126.795609 250.426010 161.408020 
128.967636 249.338669 162.659851 
130.483688 248.528214 159.574310 
-113.993591 242.684845 438.865723 
-111.301659 244.201889 443.545013 
-109.485786 245.308258 436.672760 
131.007584 248.150238 240.684616 
133.921295 246.522614 235.959656 
-102.505013 249.497726 252.587616 
27.768082 276.829956 403.764313 
27.863134 276.725067 406.240662 
-179.505234 187.294540 310.050720 
-180.837616 185.583542 315.742310 
15.116739 277.591248 317.096039 
12.869428 277.619843 313.436157 
-187.991547 176.379181 292.537201 
-188.505127 175.707184 284.658234 
-191.284271 171.898361 287.958588 
14.331756 277.207031 406.337097 
-176.623077 190.843689 307.069153 
-176.300018 191.246414 308.032806 
-99.152023 251.090973 187.304474 
-94.332611 253.468109 185.099655 
-99.520370 250.858826 178.739731 
-41.556149 271.505829 366.189606 
-37.792149 272.310699 362.213409 
-42.650955 271.257080 359.468506 
90.848106 265.541992 184.843552 
92.259285 265.036194 184.602203 
14.916323 276.716156 464.886871 
-112.073059 244.162033 219.982574 
-202.932755 154.177811 292.144012 
-199.010590 160.532547 289.881531 
-5.239198 276.957397 316.746613 
-107.316132 246.554962 443.277252 
-176.951736 190.430756 309.546967 
94.509827 264.287750 180.131165 
13.588614 276.842285 432.797241 
-78.240479 260.213287 418.841400 
-76.978020 260.753326 416.189117 
-80.513512 259.331573 412.865082 
139.313629 243.610245 167.914429 
-177.914139 189.279556 309.330170 
-77.404045 260.869751 230.218201 
-79.967567 259.878815 232.214661 
-78.784241 260.312408 239.256042 
-201.279572 156.858673 285.272552 
-201.899399 155.824219 281.470245 
-203.604706 153.025040 286.858948 
0.249060 276.460083 443.680817 
-107.483948 246.498505 428.134918 
-104.208870 248.262527 429.550323 
11.197933 277.904480 178.944885 
12.490693 277.916046 175.087112 
9.003279 277.884094 174.639191 
-175.486313 191.884277 286.999146 
-176.929108 190.244797 297.274109 
-174.705444 192.797745 294.779602 
120.985374 253.334244 161.709946 
123.659706 252.034317 155.239380 
-133.591339 230.149765 227.862717 
-136.498276 228.016266 229.896255 
-18.596188 274.796539 464.902039 
-20.658283 274.569336 463.500427 
-22.453289 274.265198 467.382233 
-111.277023 244.170380 485.008698 
-110.568810 244.525742 490.062073 
65.183853 272.381714 155.342484 
-173.620163 193.983307 295.909729 
-172.700317 195.044022 292.466095 
-202.409531 154.958176 334.108856 
-204.240753 151.833618 336.344757 
-202.803864 154.348541 341.612549 
-49.200825 269.899109 188.676987 
29.436321 276.584686 409.381927 
26.567160 276.623566 416.721771 
31.547728 276.384399 414.444244 
13.219604 277.927429 161.327393 
14.289025 277.909760 168.538895 
17.578245 277.912018 160.419128 
-119.257851 239.432556 461.035339 
-200.956039 157.337234 323.077484 
-202.676529 154.518646 315.912994 
-203.470154 153.163193 321.881897 
-138.734894 226.311615 236.283920 
-180.470459 185.980316 283.926605 
-178.273453 188.660553 289.104767 
-179.255463 187.390808 277.412933 
-16.993961 275.411774 401.758759 
-13.351308 275.796234 406.138885 
-107.686104 246.306763 441.891754 
-190.919968 172.500275 322.843506 
-189.770584 174.074326 316.510345 
-191.823334 171.253387 317.703766 
-17.365419 275.337067 415.932129 
-19.780071 275.014404 415.243439 
-178.075226 188.803345 267.285706 
-176.219421 190.980484 270.260956 
-175.759842 191.514526 262.824005 
-73.261208 262.355835 188.248459 
-68.962982 263.918640 324.396393 
-74.288673 262.025818 327.690979 
-110.703423 244.684967 429.249054 
78.985619 269.053955 180.036972 
79.738358 268.853790 172.666611 
-175.992294 191.173798 242.608963 
-141.161285 224.344162 219.248917 
-32.642521 273.022430 406.480743 
-29.633781 273.504822 410.185516 
-116.513718 241.226746 435.746277 
-118.628632 239.923538 437.263153 
-116.828117 240.987549 441.302460 
-61.190041 266.467682 305.154083 
-64.778503 265.350281 304.991455 
-65.236839 265.179688 314.076752 
-198.002563 161.983444 258.250397 
-39.921741 271.588287 422.852112 
-179.059219 187.611984 257.200989 
-177.823471 189.051727 252.327591 
-115.965271 241.602844 428.095703 
-111.686409 244.104492 426.123413 
-116.366829 241.368591 421.115295 
-97.423111 252.031769 202.881409 
-85.881104 257.416809 309.908905 
-90.626022 255.285477 307.265503 
-86.284195 257.241364 314.484619 
-177.226639 189.742523 230.148132 
-176.888672 190.129456 235.318344 
-175.520462 191.744614 233.248596 
13.783602 277.329987 373.607117 
13.249841 277.372009 368.482849 
-48.167873 269.834259 394.997772 
-43.526104 270.942566 393.963135 
-45.142612 270.608948 391.307037 
-143.889771 221.923294 490.937927 
-143.572495 222.111176 487.805420 
-145.409012 220.667831 490.380280 
-138.377899 226.600540 261.545929 
41.972420 275.706696 357.998138 
-173.493027 194.039536 230.415619 
-173.439896 194.087936 234.072220 
-171.666199 196.083115 237.924133 
-121.504646 237.979797 475.601837 
-123.704681 236.568115 475.184265 
-125.259842 235.511597 481.812042 
-113.473526 243.422775 195.462326 
-109.635376 245.626770 345.149719 
-111.767265 244.319763 344.849121 
-112.297195 244.068283 346.199738 
-180.563431 185.784439 235.652634 
-1.116530 277.042450 350.675476 
-1.931637 277.029846 353.121918 
-123.535370 236.673477 447.422791 
-125.939461 235.095688 443.572327 
-35.691013 272.539520 403.590515 
-87.757896 256.633636 277.677216 
-90.270798 255.491440 275.269684 
-90.635818 255.353149 281.990265 
-173.247818 194.296844 239.629395 
-172.222397 195.473740 241.099518 
25.430378 277.407990 284.442657 
30.366777 277.105316 282.261444 
26.325884 277.411835 280.588348 
-139.804672 225.118484 481.169373 
-138.397339 226.173218 479.226990 
-33.698654 272.809235 419.860321 
-111.543175 244.444992 198.392044 
-173.724091 193.746765 223.044601 
-175.367767 191.889816 218.688110 
-176.209961 190.925888 226.360962 
-5.370557 276.771912 349.911591 
-3.742265 276.877228 357.117523 
-126.614975 235.040161 312.547821 
-130.209061 232.562271 310.557373 
-130.033142 232.694138 317.026276 
-135.957809 228.032944 469.978241 
-135.647568 228.183487 476.738800 
-50.586052 269.119141 414.099030 
-48.238098 269.734955 417.595459 
-46.586670 270.109894 412.742340 
-161.588531 206.469742 257.199493 
-162.654984 205.453232 261.141205 
-183.387146 182.302399 232.090149 
-185.640381 179.371628 229.041214 
-183.577759 182.054642 240.148346 
-33.075901 273.254517 354.837372 
-161.671951 206.458908 331.987610 
-164.679504 203.476471 336.246979 
-148.056503 218.353180 487.446869 
-146.011749 220.086105 488.886169 
96.338188 263.455658 273.112000 
97.976967 262.843781 276.949371 
100.169510 262.090637 271.384552 
-168.138443 199.827637 206.258942 
-169.003250 198.866592 210.911438 
-17.584003 275.650970 337.678864 
-19.912846 275.306976 344.679230 
-158.581055 209.424988 326.525177 
-154.049652 213.151779 482.601318 
-157.191452 210.327576 480.620850 
-158.849716 208.723724 486.225250 
-141.362869 224.275055 239.929794 
-56.733257 267.729645 333.649384 
-57.603771 267.474274 331.696198 
-62.341843 266.069611 332.725952 
67.780563 271.825562 177.432495 
65.984459 272.189667 186.008087 
71.252541 271.002106 183.988251 
-176.951065 190.049332 216.857986 
-173.301834 194.163712 214.112747 
-173.938324 193.779053 306.898895 
-144.950974 221.073776 470.068695 
-60.238564 266.744843 312.230865 
-57.288288 267.640106 301.752625 
-180.917679 185.267303 219.232193 
-181.446640 184.675552 224.881851 
-179.047287 187.597839 222.642639 
-9.011401 276.873199 214.296875 
-11.537501 276.623474 215.691849 
-153.746033 213.386292 486.068237 
-155.757370 211.567719 489.474182 
-169.552429 198.437775 305.176880 
-168.879349 199.196869 303.390045 
-171.374146 196.517563 301.846436 
-133.115204 230.427399 209.464844 
-130.350632 232.385284 205.659195 
-176.576340 190.388733 193.055756 
-178.704514 187.844986 193.691742 
48.454754 275.324982 203.950333 
43.078362 276.005890 206.766052 
47.747765 275.385071 210.742828 
-161.699692 205.959824 485.908051 
-160.192764 207.457977 482.808746 
-169.041504 198.964828 279.831299 
-169.507309 198.449249 272.523956 
-49.559509 269.673889 323.889099 
-54.119175 268.484741 318.598541 
-55.565918 268.086365 324.941711 
-179.129166 187.386139 199.314896 
42.147877 276.101440 228.613602 
39.125362 276.404205 237.474152 
-160.016876 207.606979 489.021942 
-157.288086 210.122009 490.679443 
-53.372032 268.670654 329.888153 
-56.915302 267.690094 327.700226 
-101.246086 250.072800 196.484512 
-174.603226 192.701202 191.045959 
-171.571060 196.003052 186.549942 
-174.846115 192.353012 187.224091 
44.853279 275.865601 174.920227 
49.083672 275.293182 175.427063 
-162.982101 204.683884 489.466705 
-164.293350 203.385681 487.107574 
-165.115738 202.494003 490.491730 
-158.903687 209.068039 268.289764 
-162.784698 205.323029 267.006409 
-159.887604 208.190811 273.574921 
-62.482059 266.005981 327.670288 
-92.256424 254.480362 187.638596 
-93.529976 253.901199 193.982285 
-169.925003 197.732269 177.939789 
-172.872070 194.502899 178.719330 
53.019016 274.686340 178.949493 
56.606361 274.059387 178.229950 
-155.698090 211.703796 477.478027 
-67.487518 264.360901 338.079865 
-68.823830 263.912292 333.636871 
-69.893227 263.566345 338.429169 
-190.195206 173.058289 177.987137 
-191.916046 170.727310 176.804565 
-191.835907 170.792282 181.707764 
39.548756 276.492523 178.040024 
36.291046 276.819092 179.562500 
-76.785568 261.039032 191.403168 
-77.854782 260.590515 185.822479 
-159.990189 207.790817 455.920410 
-160.260498 207.481735 463.918030 
-157.875092 209.768951 458.238983 
-57.881454 267.425110 319.147461 
-60.331688 266.734772 315.801971 
-60.367363 266.711700 321.651367 
-117.509781 240.838043 185.286652 
-235.869339 -0.067589 12.436152 
-235.936356 0.116897 10.052155 
-235.833939 -0.653236 10.946003 
-126.114990 235.011948 454.988159 
-127.375542 234.162842 448.621033 
217.239502 -120.536690 10.880745 
227.982681 -104.171371 12.422761 
227.835327 -104.395180 9.699552 
228.986023 -102.526474 9.634792 
-103.361618 249.021851 317.471558 
-104.781364 248.243866 312.172638 
232.918732 -95.784195 9.465731 
232.385208 -96.750114 8.761225 
232.899048 -95.840248 8.761225 
231.129700 -98.909401 9.969184 
230.082443 -100.664833 8.761225 
230.815384 -99.481842 8.761225 
-173.338348 194.273560 324.334412 
-171.021423 196.831375 326.388519 
243.840561 125.275291 18.174803 
-169.963959 197.934875 264.575012 
-168.147583 199.850525 259.657959 
-132.050415 230.867783 461.613861 
-135.421570 228.414139 466.221375 
-133.802429 229.622955 468.158234 
263.180786 -1.613711 9.074740 
262.914185 -3.911893 9.744186 
200.781342 -141.173340 10.210008 
199.146240 -142.964981 8.761225 
199.904663 -142.142639 8.761225 
-175.923111 191.434708 349.735291 
-175.102783 192.272980 347.519257 
-177.420090 189.718155 349.194794 
199.036804 -143.045395 11.715884 
-186.920715 177.883911 349.027985 
-188.049484 176.353363 341.963837 
212.081436 -127.600204 9.616489 
210.557892 -129.527344 8.761225 
211.791550 -127.967148 8.761225 
209.866211 -130.400223 13.625235 
-79.672417 259.981567 324.206085 
-82.071014 258.997406 322.189972 
-82.965584 258.588898 328.377075 
258.509949 80.109062 11.475373 
237.453156 138.931717 11.068581 
238.792709 136.256866 8.761225 
238.338058 137.167450 8.761225 
-30.530230 273.968842 160.113693 
-26.347654 274.663025 158.687454 
239.003754 135.812454 15.012404 
264.165558 39.597912 11.411750 
249.205109 111.993706 9.581886 
249.458374 111.311119 8.761225 
249.163498 112.110771 8.761225 
-129.748077 232.481140 463.909241 
-123.956383 236.419479 461.177246 
-126.090324 235.248672 160.128052 
-126.638298 234.903763 167.195160 
214.153946 -124.770470 9.451711 
216.230774 -121.958244 8.761225 
217.520279 -120.133774 8.761225 
216.060898 -122.199394 9.055880 
-160.027130 207.852875 195.281830 
-181.672760 184.599152 336.039276 
-185.281525 180.083099 332.682007 
-182.829559 183.210968 340.554443 
216.087128 -122.173607 8.761225 
214.280441 -124.618988 8.761225 
214.567291 -124.256332 8.761225 
-70.429581 263.406982 307.979309 
-67.143745 264.571289 306.982849 
-71.314545 263.130554 305.092041 
264.483551 29.081831 10.592315 
264.489960 28.416998 8.761225 
264.398895 32.941113 8.761225 
187.958237 -154.467270 9.448734 
187.797333 -154.580887 11.579011 
185.660095 -156.659134 9.105968 
87.639091 266.169128 317.415894 
264.550873 23.419802 14.169518 
264.535187 23.313133 8.761225 
264.540192 23.857040 8.761225 
-132.605453 230.595352 439.197205 
-130.681778 231.900772 448.258667 
264.513092 20.157438 11.311006 
263.972382 42.293877 11.195630 
263.875793 43.164936 9.897601 
263.676331 45.549019 10.606287 
262.733002 -5.677779 11.418882 
-87.947266 256.470917 323.596802 
-85.142311 257.661896 323.830048 
236.826782 -88.374329 11.594583 
-183.654999 182.096191 329.491028 
-179.499863 187.124100 331.861908 
259.573090 75.121338 10.007453 
-174.884781 192.557816 344.989990 
-177.245621 189.879135 345.405151 
257.819031 83.058983 9.810989 
257.696716 83.620064 8.761225 
257.313507 85.169800 8.761225 
263.530365 47.038368 9.767249 
263.658997 45.749969 8.761225 
263.557495 47.213516 8.761225 
256.677673 87.698975 9.296898 
-198.584381 161.214447 351.717468 
-198.423080 161.445572 358.343201 
-197.020615 163.606216 357.382843 
232.848907 147.804916 9.579694 
232.998093 147.585953 8.761225 
232.545288 148.471970 8.761225 
257.930237 82.662544 8.761225 
-137.093018 227.338074 442.434906 
-137.819351 226.861282 434.437073 
-139.804474 225.270569 444.271851 
-174.371582 193.138916 335.849701 
-172.879776 194.825668 337.156647 
171.224152 -169.396286 11.789808 
173.168472 -167.772781 10.822424 
247.681641 -64.065773 11.153059 
247.140961 -65.499474 8.761225 
248.076126 -63.173595 8.761225 
246.829147 -66.267181 8.970716 
-90.443146 255.304245 355.484283 
-91.490631 254.855316 355.313965 
-91.269173 254.895370 357.623535 
261.578400 63.403912 10.367002 
262.209747 59.130497 8.761225 
261.883179 61.431591 8.761225 
-185.271027 180.103546 327.542053 
-178.862076 188.026199 344.042786 
262.271332 58.614525 9.513824 
252.059540 103.632042 10.338988 
234.896317 -92.114372 11.063381 
-199.428879 159.763718 392.098572 
-198.405716 161.398041 393.806213 
-198.213928 161.705368 388.812744 
235.562363 142.632431 10.184546 
234.213425 145.170258 9.631691 
232.242340 148.899857 12.072396 
231.043884 151.045715 9.727082 
264.227783 38.156536 10.292651 
264.301605 36.336887 10.274434 
-90.737648 255.187759 340.650330 
-87.764870 256.535645 342.438049 
-88.923363 256.012970 334.327759 
243.353348 126.493599 8.761225 
243.290512 126.637764 8.761225 
244.979630 122.749565 9.903460 
-188.032455 176.493164 326.978943 
-134.347260 229.701782 295.396576 
248.789551 113.035294 13.217132 
247.263275 117.037109 16.641634 
-181.994629 184.233215 367.161652 
240.796036 131.977615 12.544736 
243.257889 126.708504 8.761225 
-156.618225 210.904907 471.310577 
-155.339828 212.091049 469.805634 
-157.998947 209.608002 465.828278 
-172.648285 194.711975 170.662445 
-170.776443 196.764420 171.143280 
-169.612854 197.985931 166.449310 
-148.584595 218.335083 321.296539 
264.362152 34.554962 8.933618 
264.391327 33.276386 8.761225 
264.365417 34.511375 8.761225 
-201.172607 157.023636 333.656281 
-201.724991 156.127945 338.236023 
-198.679810 161.013824 337.653961 
-99.481186 250.976959 336.112030 
-102.636673 249.350433 340.958008 
-98.874779 251.271988 342.634644 
264.362061 34.720276 8.761225 
145.776871 -187.440964 9.175551 
143.327515 -188.914780 8.761225 
145.552551 -187.577118 8.761225 
141.987045 -189.716721 10.007613 
-187.672531 176.913773 315.652985 
-186.152328 178.896194 319.849548 
-186.099350 178.915131 316.466370 
-139.842636 225.178070 450.287720 
-141.385696 224.017822 447.217926 
-146.000381 220.231964 450.922882 
205.532715 -135.741470 9.655726 
203.921326 -137.633347 8.761225 
205.382599 -135.937119 8.761225 
-234.773865 60.207268 9.834323 
-234.783646 60.112518 8.761225 
-234.915985 59.052662 8.761225 
203.446609 -138.191132 8.761225 
203.689651 -137.910217 11.597635 
-200.625809 157.907242 351.364594 
-199.893311 159.128937 346.369446 
264.267761 12.744081 9.603125 
264.295135 12.663952 8.761225 
264.326172 13.333004 8.761225 
-196.348434 164.611984 338.181213 
-196.371185 164.590973 333.630859 
-196.953583 163.655060 347.810699 
-194.673294 167.182556 346.847107 
264.467224 30.932125 14.890190 
264.537872 26.259895 12.405859 
-185.306824 179.981125 301.618866 
-185.668167 179.475021 294.456482 
-188.226273 176.101013 299.146545 
264.061157 41.099457 8.761225 
264.041748 41.370083 8.761225 
-143.468338 222.284210 454.944641 
-139.084091 225.708878 458.400909 
-90.893150 255.153549 327.308502 
264.267670 38.565193 8.900221 
260.270294 71.644722 8.761225 
259.728790 74.365807 8.761225 
264.258118 38.694031 8.761225 
264.196472 39.446873 8.761225 
-201.006912 157.286850 328.431946 
221.787125 -114.035706 14.771886 
-194.274124 167.681564 336.281372 
263.342194 49.234734 9.394643 
263.453613 48.330547 8.761225 
263.372742 49.160187 8.761225 
-143.314514 222.521652 438.402588 
-147.759979 218.844131 440.660187 
-144.027740 221.919678 442.816498 
-166.158798 201.970749 367.034943 
-163.342072 204.767563 366.806671 
-165.138901 202.996628 363.362396 
263.842743 43.699749 8.761225 
263.757294 44.754696 8.761225 
-192.538010 170.038010 252.342514 
-193.503510 168.584427 246.990768 
-194.952866 166.497131 250.688065 
153.440659 -182.536957 9.099335 
156.835419 -180.260468 8.994891 
151.136108 -184.084167 9.501013 
151.229492 -184.016876 8.761225 
151.865082 -183.600342 8.761225 
-162.737473 205.110855 455.242371 
-164.947708 202.878647 453.234741 
-198.665512 161.047485 373.916351 
-196.273773 164.676254 369.621765 
-196.451416 164.463745 343.140198 
-198.341446 161.522018 342.898865 
158.480103 -179.174850 9.508019 
145.776581 -187.449448 8.761225 
146.328171 -187.112961 8.761225 
-199.857407 159.265152 301.308411 
-200.785706 157.899246 302.533356 
154.138947 -182.066895 8.761225 
157.010681 -180.141647 8.761225 
147.397797 -186.421310 13.049853 
144.289276 -188.359314 12.947312 
-103.835579 248.744186 323.578217 
-106.630524 247.231842 325.699036 
-100.676842 250.384918 330.044983 
262.662384 55.844158 9.035541 
263.178650 51.007961 10.040166 
147.731125 -186.266815 8.761225 
-202.607758 154.878784 299.992126 
-202.852814 154.378265 297.341827 
212.237183 -127.395927 8.761225 
212.489594 -127.050827 8.761225 
-168.664352 198.986725 468.951111 
-168.338135 199.392532 467.261108 
-169.568954 198.004425 466.776428 
-179.395691 187.372406 353.268311 
-177.632996 189.497803 354.939117 
-176.689758 190.544525 352.991943 
-192.815033 169.848648 306.976379 
-194.534393 167.328201 308.696930 
-194.338730 167.588196 313.480164 
153.740829 -182.341537 8.761225 
241.832672 -78.016869 11.083108 
264.366608 36.406670 8.784511 
191.812973 -150.691513 10.806504 
190.086548 -152.377869 8.761225 
191.566345 -150.930176 8.761225 
-69.051537 263.909668 311.320496 
-73.760971 262.211334 312.373474 
153.394897 -182.570831 8.761225 
-161.646851 206.456299 406.797577 
-157.576096 210.278305 403.761932 
150.600647 -184.425781 8.761225 
254.964676 -42.799889 11.216965 
-166.878372 201.020233 433.998962 
-165.811752 202.171097 435.771667 
-164.599533 203.385223 432.814911 
-197.719849 162.290863 245.984253 
264.365662 36.465302 8.761225 
264.282257 38.437214 8.761225 
-184.366852 181.166672 317.207275 
-201.795334 156.265045 301.705658 
185.360291 -156.933212 8.761225 
185.821152 -156.505905 8.761225 
187.683563 -154.729889 8.761225 
188.007126 -154.402222 8.761225 
-88.244362 256.365936 315.611908 
-88.761696 256.138733 318.604797 
260.864746 68.133415 12.964481 
227.985794 -104.189095 8.761225 
228.505600 -103.343735 8.761225 
-150.463928 216.612076 392.154236 
-152.680069 214.671097 388.590363 
-154.578873 213.014877 394.681152 
228.962524 -102.559441 8.761225 
229.508987 -101.633430 8.761225 
-147.318665 219.166397 445.699860 
170.613007 -169.907104 8.761225 
171.685699 -169.011337 8.761225 
-185.668335 179.121567 189.618927 
-187.763840 176.335251 187.246338 
-187.248047 177.089706 191.445297 
169.408691 -170.892044 9.170216 
-189.286407 174.743942 321.692810 
-167.878311 200.255829 301.813782 
161.252579 -177.137177 10.709159 
160.423782 -177.780090 8.761225 
161.289963 -177.109039 8.761225 
182.625183 -159.480957 10.221098 
161.533127 -176.916870 8.761225 
-63.697838 265.690765 297.420593 
261.080841 66.660843 9.602751 
239.757751 -82.451096 9.842593 
237.103394 -87.876175 8.761225 
238.763474 -84.511253 8.761225 
237.110016 -87.855598 8.934411 
-189.456100 174.033905 192.095886 
-187.195389 177.128052 195.372559 
-151.889954 215.276535 437.287903 
-150.799072 216.194122 443.872009 
223.397202 -111.534897 11.505745 
223.098618 -111.978218 9.580782 
224.495682 -109.806351 9.498719 
-166.527481 201.383759 437.990540 
226.920471 -105.997818 8.761225 
227.076614 -105.739441 8.761225 
-179.662567 187.060303 305.920135 
-182.129013 184.007248 311.875732 
226.404434 -106.745705 14.402204 
233.109802 -95.459358 8.761225 
258.480957 80.313736 8.761225 
258.093750 81.938385 8.761225 
261.553558 -13.561749 8.811217 
261.554230 -13.561305 8.761225 
261.564117 -13.508983 8.761225 
-197.497391 162.463303 186.444260 
-197.658966 162.207657 181.391556 
-141.948380 223.692261 426.408051 
-144.616333 221.539368 427.486053 
-143.539368 222.409058 433.158295 
260.223572 -21.063799 8.792850 
259.682343 -23.946312 8.761225 
260.070343 -21.877338 8.761225 
259.968750 -22.678091 11.009463 
-145.949310 220.466125 385.137390 
-143.259613 222.643524 385.988312 
237.290573 139.311783 8.761225 
236.245438 141.343811 8.761225 
-199.903229 159.089600 314.455048 
-199.257507 160.156647 309.321686 
264.522369 18.198343 9.505337 
264.508240 16.068356 8.761225 
264.522064 16.827394 8.761225 
264.395752 14.876985 11.494535 
-77.245453 260.941498 298.023834 
-79.216591 260.192017 293.084045 
188.925980 -153.515991 8.761225 
263.927490 7.616579 11.518313 
264.159454 11.577293 11.213850 
-156.102997 211.659363 399.679749 
-140.667435 224.682022 434.881226 
260.534210 70.279793 8.761225 
-73.647530 262.196289 159.373947 
-197.795074 162.436768 317.710358 
255.722092 91.550583 10.516272 
256.084351 90.168861 8.761225 
255.655991 91.811646 8.761225 
-150.988708 216.319000 341.655731 
-153.553253 214.122086 334.469513 
262.630585 -6.339549 10.058060 
255.141541 93.587013 8.761225 
-75.613136 261.559296 293.449463 
-72.700645 262.632782 289.490173 
-78.302338 260.533447 288.184235 
-141.093842 224.423080 367.658386 
-143.266800 222.680969 369.588470 
-142.966614 222.958542 373.274170 
-56.137642 267.357910 439.813019 
-200.422913 158.420380 303.560425 
-182.624786 183.330978 291.236786 
-180.624680 185.822006 290.724640 
-63.719505 265.736237 267.132874 
-60.375130 266.819702 264.696869 
-61.216999 266.548096 260.602264 
151.156052 -184.062729 14.182533 
-126.009010 235.374069 380.564545 
-124.404144 236.457504 377.655457 
248.711090 -61.648579 9.405100 
248.463913 -62.250008 8.761225 
248.891739 -61.177670 8.761225 
254.810822 94.663811 14.832174 
-68.271805 263.615723 453.048492 
-66.613075 264.151520 456.255310 
-65.851891 264.421417 451.590424 
-181.791534 184.308609 277.215576 
245.059219 -70.554695 10.677323 
244.250320 -72.458534 8.761225 
245.191193 -70.180916 8.761225 
219.207642 -117.719711 11.903522 
220.827087 -115.343147 8.761225 
221.024307 -115.062119 8.761225 
219.165497 -117.737083 9.954880 
222.070496 -113.476570 8.797362 
251.228775 -54.707802 11.663706 
-126.036690 235.379898 373.168488 
259.453430 75.733086 8.761225 
-51.234917 268.762482 436.099274 
-48.672508 269.372894 443.568512 
-192.099503 170.856873 301.235168 
259.019531 -27.032820 10.024162 
-193.542252 168.368286 184.342331 
-193.226456 168.848801 178.493774 
198.675674 -143.492065 8.761225 
196.674332 -145.668198 13.357122 
-65.126305 265.194763 276.659729 
193.873917 -148.619507 14.361743 
202.999313 -138.692352 8.761225 
-175.031647 192.455444 380.430115 
-198.387817 161.536591 285.952209 
-199.341232 159.992325 279.713165 
261.108154 -16.334557 8.917423 
-83.930489 257.782501 437.542816 
-86.609291 256.705750 432.710785 
-86.467995 256.621460 443.713837 
179.211151 -162.539871 11.065786 
192.354477 -150.143982 8.761225 
194.921783 -147.525085 8.761225 
261.501984 64.068512 8.761225 
261.340607 65.059013 8.761225 
-145.732025 220.644028 394.468109 
-147.396988 219.238174 397.784851 
-143.868240 222.158066 399.229218 
-193.733841 168.480408 287.025818 
-193.662445 168.589691 292.274445 
166.414917 -173.167404 9.870985 
165.732590 -173.741531 8.761225 
166.440079 -173.162292 8.761225 
165.044968 -174.279617 10.545331 
-113.578941 242.974350 431.552277 
167.398407 -172.411163 8.761225 
167.734421 -172.151550 10.423818 
-195.144485 166.414688 330.665405 
-159.732147 208.140579 441.315002 
-156.812988 210.813660 443.377472 
-157.406158 210.262985 436.286316 
246.892532 -66.134506 8.761225 
-75.156013 261.707245 274.649506 
-74.999184 261.759521 269.088959 
262.560028 56.607788 8.761225 
-200.543640 158.025543 379.376434 
-202.135635 155.449051 381.328461 
-200.756699 157.656128 384.004761 
239.491867 -83.006409 8.761225 
240.804123 -80.161034 8.761225 
-115.932465 241.336136 491.103821 
-118.302887 239.896851 488.885406 
-119.092003 239.426041 492.039703 
-155.350403 212.219711 433.531128 
-158.199326 209.576981 430.882721 
-196.550461 164.346222 292.183716 
-194.988800 166.691132 289.931763 
-196.973602 163.755859 288.137024 
-180.369843 186.115051 296.751007 
-178.305511 188.652740 300.007080 
-127.385971 234.298889 155.922165 
-102.550117 249.471237 291.448730 
-101.639183 249.901688 280.760498 
-105.681137 247.783417 285.514832 
262.658661 55.900768 8.761225 
-150.447678 216.782074 332.642120 
-152.163528 215.316772 333.943634 
208.130096 -132.606491 10.317851 
208.016174 -132.738953 8.761225 
209.022690 -131.469101 8.761225 
164.609802 -174.605804 8.761225 
-191.852982 171.182022 331.551727 
231.165253 -98.894875 8.761225 
-150.665497 216.136337 482.957947 
-152.546875 214.541092 476.453888 
-169.956558 197.774216 436.132172 
-92.906143 254.294128 283.418274 
259.155884 77.056969 8.761225 
263.410095 0.204150 9.615251 
-174.523148 192.994843 350.289185 
-173.188004 194.473663 347.394348 
209.426208 -130.955566 8.761225 
-148.705811 218.014374 158.088974 
-198.782867 160.826630 275.985962 
241.119995 131.325943 8.761225 
240.019928 133.616974 8.761225 
-50.003315 269.234863 420.726807 
-45.232777 270.414825 421.989288 
167.703857 -172.176086 8.761225 
168.471436 -171.598129 8.761225 
-85.091690 257.731537 261.573425 
-84.064346 258.193146 269.222198 
-119.224648 239.392731 454.799133 
169.538254 -170.787323 8.761225 
-172.161407 195.223816 450.836670 
-168.899872 198.762039 450.289093 
-171.235062 196.353546 443.715973 
-189.497025 174.380539 273.810730 
-186.777298 177.985886 276.200714 
-187.168335 177.461151 271.518524 
-186.053879 178.904205 263.693451 
-182.933762 182.869644 265.296082 
-185.251328 179.923386 260.018890 
-87.732567 256.552551 262.020905 
180.012024 -161.843994 8.802856 
177.578278 -164.024811 8.761225 
179.989914 -161.864578 8.761225 
176.652145 -164.806564 11.295993 
-54.893566 267.959534 417.084015 
-187.174789 177.222229 452.822632 
-189.263535 174.375183 456.188629 
-186.527008 178.062134 457.977509 
176.343124 -165.074966 8.761225 
-163.601059 204.571793 306.777832 
-166.473236 201.699280 305.512665 
-189.274933 174.657272 267.236816 
-162.365189 205.460693 158.275742 
-57.810467 267.341034 371.097992 
-60.627373 266.513275 367.532898 
-61.490608 266.220551 376.563263 
180.027771 -161.829102 8.761225 
224.892654 -109.158234 13.662939 
263.689148 4.025933 10.086487 
-109.499817 245.682556 347.260742 
-108.241379 246.408859 345.738098 
180.114807 -161.749481 8.761225 
183.284424 -158.855484 8.761225 
-173.373642 193.791962 475.586243 
-170.991837 196.451218 470.650818 
-56.611626 267.500671 409.614716 
-52.511024 268.683105 401.580811 
-58.027954 267.104309 402.762665 
-80.627335 259.438324 371.268524 
-81.643776 259.048889 366.146210 
-103.888008 248.639603 369.966766 
-106.176636 247.485489 366.470215 
-107.450317 246.791473 368.332489 
189.364777 -153.077789 8.761225 
-176.367142 190.518204 177.456802 
-174.106491 193.110580 183.206436 
264.395111 33.090816 8.761225 
-48.998623 269.550659 408.794861 
213.919098 -125.097931 8.761225 
-125.928551 235.576141 263.075714 
-130.037094 232.707611 257.333618 
-200.451202 158.169800 274.503540 
-153.435791 214.149246 358.980621 
-149.591232 217.476135 358.953552 
218.798279 -118.274475 8.761225 
219.369080 -117.445335 8.761225 
-84.650253 257.767303 370.439575 
264.366516 36.402523 8.761225 
-161.405701 206.750504 303.659729 
-62.684628 265.695984 407.933807 
-65.629478 264.740570 406.917877 
-63.753712 265.352112 410.698822 
230.043640 -100.829964 11.727709 
-184.003220 181.307800 465.123901 
-186.692169 177.846497 461.870728 
-186.919876 177.496750 469.364929 
-145.848999 220.526520 208.701935 
-202.936462 154.434479 300.945526 
-203.471405 153.334747 299.361633 
-187.402374 176.819214 476.838409 
-189.773438 173.607758 480.392334 
-146.825684 219.824203 339.041168 
260.961945 67.664375 8.761225 
229.778229 -101.186424 8.761225 
-53.807598 268.289490 410.459137 
-103.830048 248.715866 346.458618 
-104.157677 248.561798 348.911713 
-202.838303 153.963989 440.266754 
-201.739029 155.779724 442.072693 
-200.517456 157.798889 433.945526 
243.360001 -74.643990 10.061290 
-186.998291 177.701172 260.044403 
-53.282269 268.780365 155.838684 
-136.336884 228.000000 402.100983 
253.356964 99.616898 10.129409 
-143.015594 222.967056 315.514801 
-141.813843 223.941757 326.004333 
239.299408 135.210251 9.859620 
256.625885 87.944244 8.761225 
-79.632477 259.376648 480.088501 
263.178223 -1.686779 8.761225 
263.215515 -1.405041 8.761225 
-176.065674 191.124588 253.844421 
-173.813919 193.708359 258.413208 
-173.004822 194.564819 252.800552 
262.928925 -3.835158 8.761225 
263.146179 -1.933228 8.761225 
-68.295059 263.943695 395.498749 
-68.928986 263.767792 387.189209 
-194.641434 167.008011 258.973083 
-196.833191 163.760254 255.217758 
-197.059891 163.448029 260.715088 
-148.091278 218.644211 389.550110 
-145.586166 220.734512 388.052490 
-57.262676 267.660461 154.890228 
-139.654877 225.529938 352.051300 
-142.439453 223.374588 346.814728 
235.811523 142.208237 8.761225 
249.973206 -58.294380 10.242089 
249.694977 -59.049366 8.761225 
250.121338 -57.824890 8.761225 
-133.616577 229.739349 492.513184 
-131.884705 230.957291 491.839844 
-135.461090 228.334045 491.243469 
232.537872 148.487122 8.761225 
-158.923035 209.109497 351.482483 
-157.593552 210.393906 350.084045 
-158.104706 209.943649 348.439331 
174.445435 -166.690231 8.761225 
-165.149643 202.602402 473.324036 
-163.400757 204.325348 480.669495 
237.868851 138.151337 8.761225 
235.353699 143.044083 8.761225 
234.559128 144.582855 8.761225 
-178.763260 187.522690 492.022217 
-181.132080 184.685562 489.903290 
12.240561 277.193176 392.661957 
10.981417 277.219879 390.701324 
-165.923111 201.853973 463.388367 
-166.788254 201.005035 466.153503 
-110.518318 245.167862 297.064880 
-189.723053 174.093750 381.357819 
-188.756088 175.396881 378.433929 
-191.808258 171.254944 380.606781 
-181.228363 184.829407 205.251251 
-180.843857 185.331375 211.780746 
-190.271851 173.362854 376.902618 
-192.822968 169.826004 378.796967 
-92.674011 254.100662 400.493988 
-94.087463 253.458450 397.270691 
-95.256248 252.938416 399.389496 
-202.860138 154.087753 423.404327 
-190.575745 172.976624 350.334961 
-189.865723 173.979767 343.658936 
-98.128044 251.494995 414.681274 
-98.558296 251.219025 418.787537 
249.465866 -59.711834 8.761225 
-159.155807 208.924881 329.876556 
249.522049 -59.584023 9.796242 
205.944778 -135.250519 8.761225 
-189.213806 174.386414 183.909256 
-187.945053 176.082718 178.628357 
-175.711090 191.656235 312.174652 
243.814270 -73.551529 9.150548 
-172.433945 195.347855 287.990875 
-177.107468 189.659088 164.111435 
-176.014206 190.907120 168.342712 
-174.713776 192.411484 166.432571 
206.855774 -134.140503 8.761225 
-147.957779 218.836792 220.445053 
-160.990784 207.104950 312.206879 
-196.436295 164.188477 242.248428 
-198.731033 160.447235 171.265686 
-198.625153 160.674255 176.758499 
-195.752808 165.063843 175.710220 
-164.380402 203.823227 340.850494 
-138.708542 226.366226 283.584290 
-136.154678 228.310028 281.448639 
-139.485474 225.740570 273.086517 
-187.586777 176.778122 235.922714 
-189.756149 173.813080 236.456863 
-190.340042 173.081680 239.467163 
243.775879 -73.627884 8.761225 
-163.100586 205.090271 295.543182 
-188.580170 175.387909 224.895676 
-189.397858 174.216400 219.200409 
-191.123688 171.857040 227.741440 
-99.922447 250.204178 490.333832 
-162.905853 205.231537 314.903259 
-141.662415 224.062607 285.108948 
-142.037048 223.740189 276.755920 
212.842880 -126.604988 9.683537 
213.009094 -126.371033 8.761225 
-165.608017 202.473892 272.288849 
-163.923676 204.226425 276.509552 
-186.008789 178.770523 214.609528 
-184.321411 180.994217 218.340714 
-183.712357 181.716980 210.687927 
-50.453384 268.916351 463.549774 
251.324173 -54.332809 8.761225 
251.470596 -53.921268 8.761225 
-144.779922 221.555389 269.679352 
250.622772 -56.371319 10.582267 
-103.147240 249.158340 243.160721 
-187.988708 176.063660 197.957626 
-189.401199 174.124054 195.989548 
-70.961388 262.642426 464.230774 
-69.184059 263.266693 470.350311 
253.981323 -46.245766 8.839301 
253.973236 -46.280891 8.761225 
253.988480 -46.233036 8.761225 
-174.915848 192.351242 194.525543 
250.358353 -57.120777 8.761225 
-194.220963 167.321457 193.439423 
-195.664139 165.256546 186.460815 
-196.368973 164.143417 194.924179 
-86.036827 256.757294 486.728119 
-85.435387 257.039642 488.861511 
-170.343994 197.620224 287.743835 
-160.924957 206.955887 178.645187 
-158.353485 209.405823 168.804916 
-195.576263 165.291840 211.085907 
250.432281 108.578201 9.494329 
250.549316 108.277191 8.761225 
250.348450 108.832085 8.761225 
-81.480980 259.169830 194.044250 
-156.774948 210.846909 174.937500 
-203.471558 152.764557 207.040787 
-201.258621 156.426086 201.104797 
-79.528839 259.575348 436.505341 
-78.430717 259.969604 439.769287 
-75.869316 261.014282 436.749420 
-174.420181 193.106750 276.232971 
-172.513794 195.227844 269.751556 
-194.360336 167.028580 206.769730 
-188.667679 175.550247 310.141266 
-190.507996 173.070770 306.872742 
-190.800644 172.725143 309.623718 
-114.891502 242.043152 479.574677 
-187.151718 177.142365 183.330978 
-52.779484 268.936157 244.800735 
-51.020691 269.420929 250.047287 
255.740005 -40.273094 8.774055 
254.877777 -43.263721 8.761225 
255.730347 -40.307446 8.761225 
-141.574707 223.702408 485.080841 
-139.620651 225.262329 484.260468 
-189.555298 174.155731 244.592590 
-188.325531 175.825439 249.189957 
-185.861572 179.092087 240.363724 
-190.340469 172.816238 186.061447 
-38.747856 272.308319 232.963623 
-35.767303 272.931183 231.615250 
-41.394859 271.759399 227.000732 
-173.461700 194.126236 264.331390 
255.739731 -40.274933 8.761225 
255.744354 -40.256531 8.761225 
-117.383842 240.541061 477.939636 
-116.598618 241.003860 484.078156 
239.026566 135.774551 8.761225 
-51.903671 269.174286 235.326813 
-195.978149 164.779343 238.909760 
-196.167633 164.449997 236.090393 
-199.152237 159.805862 189.547562 
-180.231705 186.225235 266.162567 
-182.995483 182.814850 271.089966 
-180.010864 186.446915 270.075439 
-107.922966 246.021591 472.701416 
-113.428551 242.897095 473.567535 
256.914825 -35.827469 9.054654 
-103.462097 249.001755 260.380859 
-169.774628 198.100235 231.960663 
-167.859406 200.114014 224.560455 
-202.521561 154.421814 226.398438 
-201.255585 156.488159 222.711380 
-204.388840 151.276093 221.138031 
-196.705978 163.679871 179.714783 
245.108597 122.432556 8.761225 
244.693817 123.383362 8.761225 
85.472260 266.551910 385.252869 
253.292343 -48.411407 8.761225 
253.907639 -46.479324 8.761225 
253.384521 -48.108212 9.258914 
-43.623676 271.281158 184.675339 
-45.320015 270.872986 188.826965 
-54.421021 268.473846 167.624557 
-50.060204 269.617584 167.029388 
-144.553406 221.493454 167.184128 
-141.240829 224.177185 175.433411 
-141.641098 223.825974 162.596878 
-92.871605 254.261215 273.452332 
247.802750 115.636307 8.761225 
246.134506 119.936974 8.761225 
-58.575104 267.339325 255.584976 
-60.858715 266.576355 171.285110 
-57.698864 267.534454 169.548187 
-56.171848 267.993195 160.882141 
246.099380 120.028587 8.761225 
-65.148232 265.245178 223.359283 
-61.513794 266.368286 161.948471 
-64.087532 265.538361 161.396515 
-64.238708 265.491730 168.323563 
-178.821426 187.601669 168.704361 
-178.192734 188.348465 173.651184 
239.549133 134.646927 8.761225 
-150.035583 216.730530 478.259613 
-66.532906 264.792480 227.304214 
-60.316963 266.718689 157.800522 
-192.734360 169.528580 172.408966 
-191.660583 171.050964 169.835846 
-193.061020 169.001694 162.269302 
-180.052567 186.229538 447.258820 
-176.664490 190.256180 445.781403 
-178.202988 188.488510 438.319611 
-200.955582 157.045822 230.066238 
-203.075684 153.553452 232.047089 
-78.126953 260.500793 165.111740 
-74.799408 261.792694 164.803619 
-189.714706 173.698013 166.664169 
252.713715 -50.223179 9.854981 
-155.183929 212.239243 457.663452 
-155.458115 211.988495 460.733856 
252.959717 -49.466553 8.761225 
-75.659653 261.575653 231.577026 
-178.335022 188.388840 214.665604 
-66.849152 264.616516 165.106079 
-70.460777 263.350372 161.015884 
-68.817726 263.957886 173.638733 
51.331902 274.283630 404.221161 
49.583424 274.517944 407.053375 
231.768356 149.723969 8.761225 
-163.348328 204.639984 212.406830 
-159.057510 208.814713 209.367111 
-77.595268 260.679199 168.254501 
-79.738869 259.856232 171.148041 
-73.259384 262.362274 173.225067 
116.997765 254.912521 328.245514 
233.314835 146.945984 8.761225 
-133.898514 229.609024 456.342438 
254.034012 -46.075687 8.761225 
-64.318153 265.465088 208.215164 
-59.840824 266.904602 206.609055 
-191.947586 171.104874 343.145020 
-191.199524 172.162460 344.866486 
-67.970062 264.232819 159.385574 
126.228828 250.462448 314.619293 
130.379303 248.313934 316.162415 
132.803879 247.023712 311.373413 
-74.324768 261.759399 416.383759 
-75.938675 261.147644 411.267456 
-83.816055 258.283997 238.754700 
84.785553 266.767273 381.037170 
-72.982033 262.228882 404.924103 
251.880508 -52.694042 8.761225 
-183.079544 182.546173 208.513336 
-72.636375 262.569672 163.916046 
128.187042 249.581543 274.363586 
130.873184 248.185577 273.400513 
130.664963 248.309128 271.049194 
-60.251507 266.413940 408.139923 
-61.144943 266.156769 411.695587 
257.954010 -31.727186 8.761225 
258.676941 -28.562181 8.761225 
257.967316 -31.663357 8.997575 
130.313019 247.836746 412.662048 
135.945435 245.372406 266.503174 
133.241531 246.896332 261.620331 
133.897507 246.509674 273.148926 
258.913513 -27.524530 8.761225 
-11.780099 276.552734 224.559296 
-97.935722 251.772537 212.202332 
245.649139 121.071205 13.478992 
246.080643 120.074875 8.761225 
8.230925 276.528442 484.404694 
120.633942 253.363235 264.453430 
126.096840 250.628998 269.897430 
124.968040 251.231583 265.631226 
-61.679951 266.045410 398.316833 
227.250000 -105.429100 8.761225 
-105.213501 248.020844 238.314392 
-108.800835 246.125732 237.382095 
256.935669 -35.748062 8.761225 
256.983002 -35.571381 8.761225 
-87.329773 256.697052 167.051331 
-89.207512 255.818878 162.441940 
-90.600967 255.236938 170.109924 
130.727600 248.272064 258.660889 
126.738396 250.355530 257.908691 
129.040512 249.098923 266.373230 
225.388931 -108.473572 8.761225 
225.413345 -108.436874 8.761225 
-42.345070 271.244629 390.962524 
262.502502 -7.702183 8.761225 
262.600739 -6.689616 8.761225 
-118.035545 240.587326 229.173187 
-123.776886 236.815308 170.034866 
-123.256134 237.148422 174.573425 
118.854950 254.304611 233.332962 
116.061104 255.566376 233.357315 
115.984756 255.609344 238.473892 
226.784775 -106.213509 8.761225 
-90.016899 255.291946 420.106415 
-93.176888 253.816849 420.049316 
36.125019 276.264496 374.471466 
37.420628 276.078339 379.330139 
40.651875 275.742798 377.749451 
-55.791294 268.125854 222.316986 
-58.887394 267.224640 222.752884 
12.356027 277.311646 379.470917 
-78.741463 260.103760 402.445038 
-75.558235 261.299561 397.773132 
-79.349846 259.842133 399.581177 
-113.169807 243.394440 163.344131 
-111.324509 244.460388 165.602203 
-109.992088 245.197144 164.878479 
24.224993 276.575897 449.232208 
256.823364 -36.171860 8.761225 
-57.291039 267.708679 194.065872 
-79.825630 259.662567 396.290314 
-81.664665 258.913940 392.450165 
-85.758850 257.218323 394.687439 
50.929550 274.509888 352.590729 
46.362747 275.183899 355.309143 
50.857300 274.509796 358.315094 
-126.371506 235.058670 174.487946 
-80.566360 259.554565 213.179092 
-4.935754 276.175629 440.783051 
