-220.869385 82.565857 215.476761 
-220.916107 82.462830 213.198868 
-211.097626 101.047523 138.548737 
-210.679840 101.682602 136.806641 
-169.397339 153.342545 175.978104 
-220.570435 83.234619 211.074722 
-222.449982 79.325371 211.278656 
-187.537354 134.037781 161.348160 
-188.191147 133.285522 160.440109 
-222.412155 79.477180 203.857666 
-52.263538 217.081421 195.671402 
-109.946411 194.938751 350.189819 
-108.853539 195.510071 349.399139 
-33.601341 220.920410 115.898643 
-183.247787 139.064789 142.589310 
-223.474792 77.290092 193.964188 
-51.026112 217.136673 289.863922 
-60.740238 213.808395 404.078827 
-184.952530 137.121292 155.382965 
-51.373592 217.474319 119.813881 
-230.787125 59.567509 209.984528 
-229.861603 62.235489 216.384842 
-169.424408 153.293945 208.543777 
-56.682259 215.989151 233.118927 
-229.810104 62.287628 215.571396 
-18.121117 222.846741 103.463287 
-171.849884 151.050827 156.204803 
-65.605713 213.625519 205.790314 
-59.928513 215.212814 209.356918 
-159.036255 162.848038 152.336700 
-157.892868 163.783951 140.107834 
-68.198860 212.842758 220.577515 
-21.695387 222.142731 267.711761 
-77.851799 209.575424 231.266968 
-229.131638 64.079796 197.526459 
-229.860855 62.177837 205.738770 
-243.956024 5.657443 363.849304 
-29.539970 221.564835 105.302818 
-178.095810 144.667557 146.311874 
-244.899292 -2.621567 374.038696 
-49.428448 217.951752 106.280685 
-30.051268 221.536880 90.276306 
-33.173985 221.007019 88.959770 
-86.113655 206.159027 306.548706 
-179.175629 143.459366 162.839218 
-128.713486 184.027435 384.357239 
-127.665398 184.736618 384.032135 
-128.784393 184.101746 382.607300 
-48.563194 218.132507 121.631714 
-232.768036 54.040813 198.504639 
-194.874878 124.595596 242.194000 
-233.512375 51.944721 199.683380 
-49.640480 217.902008 117.722702 
-47.709526 218.324524 118.311134 
-233.415146 52.286922 197.062637 
-39.428463 219.582230 261.519653 
-234.070496 50.293198 202.911514 
-234.483688 49.143456 202.942429 
-234.663605 48.392838 200.377838 
-121.249405 188.623795 377.355957 
-134.600983 180.113251 391.334656 
-64.895432 214.006226 106.305275 
-232.598633 53.194572 341.073608 
-237.920013 35.703407 341.802521 
-195.532837 123.836540 199.900055 
-77.459839 209.696609 238.460083 
-141.135788 175.770630 368.902557 
-226.097015 70.262421 320.480621 
-217.932953 88.345222 224.655792 
-162.952286 157.985260 399.272766 
-93.542130 203.305771 292.659943 
-63.708076 213.500473 337.039032 
-209.736176 102.916168 236.666718 
-223.461182 76.957321 233.929581 
-244.675308 2.955788 283.609833 
-234.433212 48.016518 321.264923 
-50.710522 216.513184 402.227173 
-235.297073 45.137856 321.502808 
-219.659622 85.085579 216.324005 
-241.772171 20.437334 290.611450 
-96.120712 202.249664 276.985626 
-66.283752 212.217834 403.663971 
-80.399811 207.772919 403.085999 
-80.380211 208.913971 127.887207 
-91.636757 203.227844 397.296875 
-212.254242 99.009148 178.845596 
-213.986237 95.978882 178.539368 
-199.851776 118.114883 167.152023 
-213.982895 95.713760 221.895264 
-97.135506 201.889877 223.645706 
-197.920303 120.799149 146.276611 
-112.873314 194.248627 186.078506 
-198.029022 119.355888 369.285339 
-198.318680 118.941124 366.907135 
-139.768982 176.436432 404.423004 
-137.891266 177.782913 403.835205 
-215.883453 92.505829 181.253311 
-219.063797 86.236450 208.987823 
-109.963562 195.954025 106.558716 
-114.906326 192.110062 402.335907 
-211.305145 100.637749 153.311264 
-209.074036 104.330803 153.622833 
-120.722305 190.078094 131.085373 
-212.264252 99.033859 151.506271 
-214.576599 94.932457 149.576202 
-71.833549 210.763611 379.721619 
-73.322639 210.222809 380.330780 
-122.094055 189.088226 175.043442 
-78.237022 208.528595 380.012360 
-209.802750 103.074806 156.479095 
-215.638779 93.065292 159.403961 
-114.970863 193.179977 179.108322 
-189.306183 131.864059 105.863083 
-3.390914 222.604416 389.983307 
-218.729370 87.206085 119.150955 
-204.537186 111.421791 133.479294 
-66.571609 212.382706 374.404846 
-117.124931 191.811874 231.660522 
-116.479576 192.154877 229.112473 
-244.925903 2.023614 141.730560 
-123.764893 188.096954 173.559769 
-6.480778 222.514709 394.921814 
-135.915207 179.179565 387.716766 
-204.764236 110.785652 244.004089 
-239.779724 30.894390 133.724182 
-203.745865 112.217163 266.623932 
-1.904023 222.652618 392.737122 
-231.123306 58.751846 179.761826 
-194.699829 125.175423 117.222694 
-241.343918 24.399977 139.126205 
-160.576736 160.133896 389.928986 
-199.917313 118.225357 113.450180 
-124.359375 187.755020 217.789597 
-115.982971 191.699539 370.513550 
-218.387680 87.730576 167.508759 
-206.688797 108.203468 132.427628 
-117.089455 191.112686 369.328644 
-119.962425 189.494751 367.862335 
-245.243210 -0.040959 165.503876 
-219.299622 86.012375 168.788406 
-205.702164 109.674210 134.571686 
-245.024857 1.077488 155.630264 
-245.187302 0.081900 156.750854 
-245.192642 0.447447 170.320801 
-131.332901 183.276077 246.938629 
-204.885284 110.940590 118.586021 
-226.688660 70.124306 171.755493 
-121.296509 188.386642 403.476532 
-205.647049 109.830887 115.711960 
-16.137453 221.837769 403.640228 
-132.544479 181.365143 403.720398 
-127.803856 184.812668 378.340637 
-99.774323 199.765503 361.535309 
-207.932144 105.753487 236.934753 
-244.237823 6.286051 271.528198 
-226.386963 70.887756 180.441589 
-239.746994 30.437353 243.081650 
-234.858994 47.812294 189.613861 
-118.934677 190.091095 360.151337 
-32.032539 219.921783 398.563568 
-231.754150 56.975315 178.276657 
-136.134277 180.173676 220.876663 
-245.409500 -1.884848 134.888992 
-245.379852 -1.031716 138.929047 
-219.726868 85.242638 128.040100 
-138.525772 177.415421 399.977020 
-238.103134 36.896370 189.557892 
-143.662247 173.877747 378.883972 
-238.558640 35.110348 241.825684 
-234.855392 48.250626 125.782562 
-107.118179 197.139481 221.853516 
-234.263290 50.003891 133.006042 
-238.574921 35.504288 121.062202 
-227.413223 68.611862 113.595505 
-226.654556 70.342941 112.814903 
-149.462708 170.445358 239.567703 
-134.550079 180.347717 361.046387 
-239.262222 32.832504 118.047638 
-7.162216 222.598846 381.964600 
-238.481308 35.362766 221.597076 
-240.325058 28.299433 120.991478 
-141.097305 175.688889 370.595581 
-224.592041 74.869751 159.971481 
-240.151947 28.636301 237.910767 
10.572000 222.952408 361.935059 
-126.593567 186.313980 209.332245 
-141.050156 175.625992 377.044067 
-241.648682 21.798307 245.407913 
-210.023666 102.785225 112.289520 
-236.105194 44.136173 112.431358 
-132.190292 182.746857 213.287949 
0.592565 222.970551 364.589783 
1.579327 222.988358 360.667664 
-145.270569 172.925934 336.085022 
-146.261108 171.949051 350.403015 
-221.189056 82.195168 138.541000 
-141.760162 176.282990 195.850189 
-240.548218 27.376308 146.950714 
-221.232620 82.136795 143.266159 
-242.201431 19.652029 123.256462 
-133.121399 182.122986 211.563293 
-154.109467 165.733749 376.996521 
-241.987518 20.690416 114.724251 
-146.282776 171.857544 374.484039 
-15.942255 222.118423 357.849640 
-14.178053 222.267090 359.132080 
-149.512192 169.294220 402.138397 
-34.130253 219.810150 368.428619 
-37.901207 219.151855 361.585449 
-233.417862 52.158501 184.259521 
-233.526779 52.243248 172.547272 
-55.320522 216.451309 155.442230 
-162.991150 158.315140 349.583923 
-237.063583 40.534081 197.229248 
-148.474884 170.285538 349.681244 
-149.915787 170.116989 206.438614 
-141.560577 175.521484 343.947845 
-192.001984 127.148682 398.659485 
-192.677902 126.241570 401.854492 
-140.440414 176.316513 344.011108 
-161.865402 158.951263 403.450104 
-120.334259 189.205276 384.386261 
-242.157028 18.831341 280.113922 
-127.934303 184.856522 379.538696 
-219.884521 84.962952 133.228500 
-135.225784 181.098495 124.934586 
-110.781868 194.334976 404.426453 
-229.927124 62.023640 155.099319 
-118.702682 191.208939 129.698914 
-118.874382 191.098099 131.490158 
-243.328674 13.357209 223.777222 
-134.412598 181.685196 117.722992 
-223.157471 78.129440 128.541977 
-129.722519 183.494232 374.531799 
-129.963821 183.412598 371.689087 
-220.581116 83.433022 111.382759 
-222.857132 78.708748 114.070938 
-121.560287 188.486786 375.152954 
-221.825729 80.911079 111.781845 
-221.779892 80.944351 114.608055 
-131.351242 182.593460 357.317383 
-232.022491 56.488724 137.636322 
-151.867264 168.848923 128.439392 
-225.637573 72.703506 103.546600 
-122.948364 187.938797 352.597473 
-123.197708 187.786499 350.493744 
-125.709305 186.276413 349.996094 
-236.087769 43.881477 214.837845 
-236.002167 44.048843 218.147675 
-236.024750 44.171528 211.005630 
-153.715195 167.319809 108.871292 
-128.573380 184.395996 360.074249 
-160.018005 162.048691 128.136230 
-239.067078 33.090771 221.156891 
-129.803299 183.752762 342.256714 
-168.862198 153.931305 135.867722 
-147.822678 170.780426 376.463745 
-33.430313 220.354980 313.903809 
-160.706116 160.118576 386.657715 
-81.153381 208.515030 177.182846 
-163.849136 158.602112 117.278229 
-85.694748 206.815475 177.663269 
-70.002068 211.183685 396.108429 
-84.020187 206.463104 369.361176 
-71.356239 210.812134 390.369598 
-175.280136 147.664963 127.694527 
-57.518040 214.856888 372.667114 
-179.638229 143.072556 127.338654 
-75.595894 209.458603 385.695160 
16.148417 223.296112 273.780518 
-171.141266 151.811310 135.676575 
-245.700867 -4.723622 220.811005 
-243.669724 11.520527 216.837830 
-233.203873 53.045540 139.060257 
-3.421222 223.315048 291.553192 
-191.193024 129.568161 139.084534 
-240.010925 29.234800 205.266205 
-118.660614 191.264862 128.132477 
-241.876846 21.148083 203.674149 
-118.351433 191.423019 125.997322 
-87.730957 204.876801 403.597778 
-243.459412 12.529402 197.733124 
-243.240067 13.936617 193.639145 
-243.212463 14.063935 201.077026 
-97.311974 200.567642 404.280975 
-172.109863 149.412476 404.542145 
-81.857689 207.350327 366.200714 
-121.327232 189.728333 119.964371 
-168.031769 154.810944 110.883606 
-165.959152 156.532211 188.987579 
-239.490082 31.670898 193.696655 
-239.306244 32.411457 191.022675 
-242.284271 19.395477 187.249176 
-241.161636 24.441875 193.585632 
-185.517868 136.399918 128.014877 
-235.078094 47.118271 183.959473 
-91.797165 203.204254 373.938660 
-242.026108 20.445946 190.868927 
-104.277245 197.499725 398.965485 
-90.364578 203.814423 375.414825 
-240.610550 27.086737 174.790375 
-189.913940 130.692902 300.975525 
-192.870834 127.507767 117.363098 
-192.356750 127.510849 302.799408 
-106.388550 196.476089 397.422272 
-119.886292 190.222504 280.363495 
-116.351852 191.238281 404.098785 
-241.039413 25.134422 188.215256 
-103.309792 197.975632 382.107208 
-181.989807 139.973938 287.415802 
-115.025368 191.991135 403.787628 
-118.417915 191.374756 119.641350 
-114.605286 193.472900 110.816597 
-242.010681 20.613169 183.566544 
-245.156891 0.400547 200.055206 
23.679420 223.227997 105.669350 
-120.298553 190.272934 115.035156 
-120.038277 189.393219 375.197510 
-101.956367 198.745132 372.347565 
-205.418274 109.180252 322.254761 
-241.458420 23.182487 159.929352 
-90.917160 203.637604 367.496826 
-243.482025 12.873094 179.359360 
-241.975586 20.955063 176.408737 
-212.379288 97.884895 309.809265 
-101.680382 198.876328 369.362793 
-216.910461 90.628319 182.750092 
-109.338821 195.014526 393.269318 
-107.867508 195.761322 395.671967 
-216.466858 91.494064 183.175812 
-200.549271 116.642517 291.378265 
-201.115082 115.847153 288.085480 
-182.048340 140.407379 138.145813 
-244.984344 1.920384 186.234116 
-180.117783 140.970779 404.401886 
-245.408997 -2.071579 223.394958 
-245.002747 1.228049 223.752625 
-243.596359 11.980600 184.410675 
-157.849091 163.943176 104.516624 
-172.368195 150.619919 134.627197 
-175.632675 147.145889 183.661652 
-245.271790 -0.943059 209.320633 
-179.255600 142.999908 275.952240 
-183.067215 139.272568 126.573425 
-175.383087 147.413116 186.144379 
-182.095047 138.888870 396.270905 
-118.026413 190.633255 354.795044 
-245.288849 -0.998591 216.899536 
-232.589920 54.988358 130.006149 
-245.243378 0.179199 186.399567 
-188.065247 132.980423 286.310028 
-188.259277 132.699905 297.156982 
-245.525818 -2.533389 195.553497 
-219.839722 84.936691 105.014587 
-187.530762 133.689987 261.609314 
-189.810226 130.797684 296.920410 
-39.298862 219.170624 335.015228 
-193.576721 126.265480 275.393860 
-201.197342 115.860291 269.776855 
-237.915436 37.876537 164.955948 
-237.381012 39.721348 172.259186 
-189.400162 131.586441 255.613083 
-237.855667 38.047363 167.444473 
-207.776443 105.685257 280.464294 
-239.032394 33.747269 150.726074 
-238.532471 35.688618 146.205566 
-239.828537 30.629156 146.863953 
-196.908340 120.780716 399.960999 
-209.924362 101.202271 389.533783 
-220.797485 83.117249 133.503372 
-238.435638 36.084457 153.495071 
-201.511642 114.214363 394.000671 
-198.425980 119.825928 276.173065 
-200.920395 116.261749 272.307251 
-207.351776 106.505829 273.129730 
-203.812088 112.094879 270.258942 
-202.732819 113.721542 271.294495 
-175.423828 147.454361 141.839966 
-239.693695 31.226168 151.976868 
-168.701874 154.124008 145.276993 
-59.964546 215.341354 106.672569 
-202.836945 112.393654 404.057007 
-214.087784 95.185631 284.125031 
-173.086426 149.749313 146.460510 
-232.731583 54.656776 125.392220 
-209.495026 102.609070 330.565155 
-233.290817 53.013397 125.481430 
-80.871254 208.740005 130.869614 
-219.175751 84.333221 404.465332 
-219.823196 82.970001 403.720703 
-199.251892 118.719742 264.115021 
-245.394836 -1.533271 156.857254 
-210.676132 101.117302 260.564056 
0.567370 222.648804 402.461426 
-219.221390 85.294235 310.363892 
-189.620880 130.453232 369.088867 
-221.701599 80.198036 296.263977 
-78.583176 209.542084 108.819771 
-219.464310 84.594902 327.036224 
-245.218857 -0.288695 154.427933 
-160.907135 161.256104 106.468605 
-223.734772 75.353462 337.371857 
237.893173 67.958923 264.821564 
237.354416 69.233734 267.330780 
238.309647 66.977242 268.240906 
244.245087 50.809387 269.634491 
243.619812 52.787991 268.641937 
243.216553 53.900681 269.823547 
241.403412 58.968586 262.364166 
241.011795 59.964653 261.338654 
240.983963 60.078999 264.553436 
239.245117 64.602028 276.202087 
239.964615 62.774658 278.968903 
240.633759 61.073864 275.287964 
-196.586441 121.621376 355.631531 
231.189606 82.892868 264.935852 
230.358353 84.496384 269.820404 
231.146164 82.888519 268.677582 
229.749878 85.676895 271.856537 
230.716522 83.726326 274.362518 
231.677231 81.729416 271.147766 
35.270168 222.013885 150.044907 
36.684147 221.816406 156.669693 
237.926956 67.740807 283.343140 
237.282227 69.277122 284.403809 
237.921478 67.760040 286.521088 
229.669083 85.897232 266.913177 
228.185394 88.750122 267.386200 
228.840073 87.490273 270.638306 
237.358780 69.378952 254.119034 
237.773132 68.328011 249.774017 
236.318130 71.757256 251.121185 
227.987823 89.276756 231.914520 
228.643280 87.931015 234.678726 
228.690475 87.903320 231.889755 
227.209747 90.721199 203.296829 
225.507401 93.833717 204.443558 
227.194122 90.772606 204.850143 
234.547302 75.885162 217.617615 
233.919922 77.210625 219.764008 
234.388947 76.122818 222.524658 
232.650864 79.797249 223.559219 
232.825546 79.474014 220.039948 
231.590225 82.042442 220.742889 
236.863403 70.564850 204.890747 
235.236938 74.316345 200.420227 
235.914948 72.797279 207.672134 
234.084091 76.843880 195.290009 
233.191360 78.812950 194.496063 
233.311646 78.588333 196.285690 
236.713867 70.961777 224.188477 
236.367432 71.697990 223.004761 
235.696045 73.244865 224.231735 
238.889145 65.647209 243.687439 
239.397354 64.332314 241.902328 
237.863647 68.134125 239.625366 
229.798004 85.746483 189.687607 
230.311432 84.704185 192.947540 
232.142212 80.955154 190.046204 
236.082504 72.362816 220.876160 
230.904160 83.489578 183.045731 
231.516342 82.251686 184.473694 
231.710892 81.824738 183.080811 
240.276062 62.387474 175.441116 
238.725342 66.173637 177.545349 
239.644196 63.957588 180.659744 
227.976517 89.163788 207.487991 
228.582245 88.065079 209.845978 
228.763336 87.704964 205.511322 
225.220474 94.290710 219.918381 
224.222412 96.044342 226.130356 
225.911804 93.031250 223.174896 
226.817490 91.385193 222.382980 
227.279892 90.545685 218.115723 
228.226486 88.696190 219.622620 
229.941315 85.291954 214.574844 
229.306229 86.592178 212.706238 
228.343262 88.525414 215.517441 
-235.790390 42.104069 393.055573 
226.004303 92.874596 214.123596 
-244.805145 -0.378579 346.353271 
229.022064 87.189148 221.362076 
230.141220 84.921455 220.966843 
229.366562 86.462273 218.302383 
231.700302 81.811134 213.609543 
230.604309 84.019188 216.044312 
231.917587 81.367348 216.782211 
227.334900 90.463959 200.259186 
227.733353 89.770248 204.347549 
227.009583 91.033409 206.179398 
227.942017 89.288033 189.036896 
227.568497 89.991440 194.993042 
236.412231 71.588760 201.288391 
237.510880 69.094933 203.618393 
230.843536 83.699173 187.253296 
229.949036 85.438858 186.825577 
229.102371 87.033447 188.868607 
229.097443 87.057976 184.978531 
228.823517 87.635864 181.145264 
226.872726 91.316269 184.158722 
226.378983 92.323189 181.429642 
229.995239 85.310196 166.408218 
230.236603 84.853645 163.443634 
228.862350 87.560623 164.782410 
233.764572 77.560623 213.274643 
232.853455 79.498329 216.465408 
-242.141037 19.723619 137.822586 
234.625259 75.664062 203.503174 
230.129318 85.007561 204.475494 
230.147430 84.993172 207.850037 
233.702942 77.736412 192.740570 
233.756882 77.522621 200.691818 
232.402756 80.422920 200.903107 
232.582260 80.063583 205.106979 
231.263489 82.848541 207.880829 
230.159302 84.981651 210.073471 
232.119034 81.018944 210.397339 
232.934814 79.256393 209.216064 
234.311920 76.297523 206.749100 
238.737457 65.983360 218.533890 
239.885986 63.156040 220.832504 
239.954910 62.952126 216.369507 
240.126312 62.600830 212.540756 
241.156143 59.807011 212.581757 
240.489090 61.628395 209.214676 
243.734940 52.427383 233.920975 
244.108032 51.480778 231.104584 
243.027283 54.426331 232.312881 
243.515732 53.273308 220.408524 
243.904434 52.069847 220.603027 
243.747147 52.510761 216.576111 
239.268799 64.690865 215.427261 
-67.317085 212.232117 361.494415 
238.786392 65.987831 200.895920 
238.544907 66.671478 203.945450 
239.037170 65.509331 204.461594 
241.071854 60.135193 200.210556 
239.964386 62.934261 198.318039 
239.699615 63.694714 202.866058 
238.688858 66.311829 191.184860 
238.057861 67.779045 191.519791 
238.553146 66.589546 193.208557 
230.821533 83.635719 173.700760 
230.460037 84.430283 173.203140 
229.878601 85.524544 174.576782 
235.472122 73.685020 163.180695 
235.383301 73.854385 165.576996 
236.612045 71.102158 166.387329 
238.638367 66.341721 196.724503 
239.362473 64.561386 192.667694 
239.132294 65.142433 188.931015 
241.151215 60.007412 175.273438 
241.047836 60.411484 173.483566 
248.445892 35.793411 360.387573 
247.523865 38.950985 363.602417 
248.335648 36.254089 363.095306 
228.778748 86.283134 399.503510 
229.987274 83.911903 401.747437 
229.261627 85.308189 396.750397 
231.593460 80.776314 379.251709 
232.362000 79.114082 379.715271 
231.032120 81.957161 376.448608 
231.347290 81.371658 357.214447 
230.207504 83.659393 357.013672 
231.343567 81.350311 358.831726 
239.281479 63.672016 375.143707 
238.340179 65.911186 375.116150 
238.843323 64.578796 377.755951 
237.554031 68.958458 176.163895 
238.150269 67.577171 179.629883 
248.678299 36.711884 160.018082 
248.452957 37.401428 159.034042 
248.279755 37.965233 160.183838 
224.927765 94.797585 232.679092 
225.477463 93.743073 231.102081 
228.284348 88.583923 223.485870 
230.885391 83.472305 228.508438 
227.512817 90.110245 229.577240 
228.631836 87.978638 230.373398 
227.640320 89.814308 228.244385 
231.754822 81.793556 266.868469 
232.103287 81.096107 266.024078 
232.403488 80.350967 263.926666 
232.245285 80.774857 260.892578 
231.343719 82.602516 260.204437 
231.900848 81.485664 257.676239 
235.671448 73.280144 267.202576 
235.899750 72.626778 265.802826 
234.766327 75.382004 267.031281 
235.248764 73.938431 283.832153 
235.213806 74.067230 279.604553 
233.976791 76.791534 280.587585 
237.276138 69.381454 264.957581 
236.678925 70.853951 263.627289 
237.746750 68.234932 272.693512 
236.636429 70.835312 270.518921 
233.533051 78.020065 258.256287 
234.882935 75.045914 258.917938 
234.682220 75.513359 255.936310 
237.677673 68.634720 259.029541 
237.197708 69.771927 259.033783 
237.566666 68.962402 261.351349 
239.919510 62.968853 254.171432 
240.572296 61.190838 256.843689 
240.949646 60.295097 253.896805 
251.041748 26.585085 256.505402 
250.910446 27.080370 259.453888 
251.463333 24.648087 257.628296 
251.276001 25.751829 184.455154 
251.697891 23.820284 185.270157 
251.542496 24.373600 183.710632 
244.273376 51.069214 175.709778 
243.261292 54.104382 176.050949 
244.283554 51.083691 180.238846 
239.099380 65.168541 126.814247 
239.054413 65.357262 129.287369 
239.383057 64.472153 130.038742 
255.343201 0.840762 89.656425 
255.012100 3.331140 88.767120 
255.053268 2.857055 91.111305 
237.897751 68.002632 244.311295 
238.097473 67.530235 247.164520 
246.821060 42.841778 180.565186 
246.062943 45.449665 180.565552 
246.630798 43.494102 182.100891 
243.325714 53.526100 245.783005 
243.875107 51.888794 244.624817 
243.230392 53.946430 243.366745 
252.242645 21.364271 179.398117 
252.148575 21.555824 182.007629 
252.656876 19.220865 180.137222 
243.498657 52.121353 385.747345 
242.419006 55.232277 386.800690 
243.532379 52.060139 389.309479 
245.698807 46.420757 201.015915 
246.457947 44.115913 200.282639 
245.761642 46.273659 199.164719 
246.111603 43.728565 388.005005 
245.877853 44.495354 390.896332 
246.316574 42.926113 389.847778 
252.834335 18.207188 200.902054 
253.539078 14.067232 198.713669 
253.070053 16.620934 198.098709 
246.874161 41.411213 355.470062 
246.539124 42.537560 357.168640 
247.516159 39.037125 359.086670 
252.007233 22.488958 201.721283 
252.019028 22.276024 199.222824 
251.138000 26.211782 200.262695 
245.953339 44.488949 355.025604 
246.190735 43.683334 353.155975 
252.382965 20.323902 198.572952 
252.338867 20.747219 201.032654 
246.643372 43.074425 295.008331 
247.887451 38.850704 292.293732 
246.796082 42.711056 288.942993 
252.353973 20.757517 193.220749 
252.583801 19.839403 191.259674 
252.171570 21.807535 191.325745 
230.680344 83.871803 151.058197 
228.889145 87.497955 150.522964 
229.591614 86.058037 152.962875 
-233.394424 50.874184 332.582672 
-233.213821 51.448818 334.470459 
226.066254 92.860443 173.351044 
227.973373 89.223740 173.649719 
227.376907 90.420868 170.150192 
252.678635 18.748421 195.992096 
226.946075 91.262054 134.232025 
228.903351 87.468102 134.858627 
228.118988 88.989655 131.893005 
250.552094 29.072674 190.755920 
250.650879 28.629307 192.167068 
251.007874 26.988514 192.311539 
229.949463 85.403572 145.858551 
228.840881 87.642494 145.618622 
247.463867 40.611538 182.223114 
246.618484 43.584019 183.831406 
247.089050 41.833443 184.615585 
227.046249 91.106865 130.705292 
228.384491 88.504311 128.369781 
246.029282 45.629566 182.323639 
246.064636 45.405018 186.212143 
233.659454 77.741470 125.656433 
234.687302 75.501602 123.565018 
232.725235 79.719627 123.784790 
251.943924 22.809296 193.282196 
251.665543 24.123819 192.529312 
227.837387 89.539398 126.276108 
227.267334 90.582565 122.502586 
225.765869 93.326622 124.396233 
251.246429 25.895094 190.829391 
251.748199 23.633688 190.716919 
251.541275 24.615011 188.878647 
224.884476 93.752487 384.857513 
225.678940 92.430664 384.240723 
224.507446 94.509438 383.433014 
252.519043 20.048725 190.191147 
252.090805 21.845819 189.305588 
226.332184 91.244247 368.445282 
225.697510 92.534584 369.157379 
225.886002 92.121704 370.578522 
252.757919 18.603012 188.597977 
252.411102 20.301943 189.290802 
255.295456 1.666566 192.142914 
254.985687 4.448007 193.177277 
255.505264 -0.551057 194.236862 
235.522827 73.600571 169.494064 
250.307404 29.934860 185.718872 
250.421982 29.475500 189.082947 
250.885284 27.442451 186.810074 
229.371414 86.511215 171.653534 
228.517532 88.184853 168.823547 
228.498199 88.270103 170.970291 
255.065231 4.110477 191.244141 
255.317429 1.378869 189.640137 
241.398819 59.340168 165.341049 
240.422745 61.916138 165.534042 
241.013855 60.313766 168.565338 
252.038025 22.259834 180.205154 
237.927612 68.030281 161.732178 
236.983521 70.325249 159.556061 
236.806641 70.722260 162.722137 
251.420105 25.032154 181.549515 
250.880219 27.554638 180.403824 
237.520981 69.044205 165.113495 
251.849655 22.861095 183.204071 
-233.528534 50.625820 329.962830 
229.445312 86.359123 154.554153 
229.259979 86.804230 156.104828 
230.320724 84.676147 153.927826 
252.362213 20.448889 172.898682 
251.875290 22.933243 171.597565 
251.606445 24.345078 173.160416 
-231.079025 57.452103 339.130646 
241.590790 58.723507 164.111038 
241.349167 59.486141 162.622681 
251.583130 24.415918 179.157181 
252.042587 22.124977 178.841888 
240.907440 60.757675 160.488144 
253.545395 14.097836 177.997421 
253.293304 15.603224 181.574356 
253.611832 13.835035 181.434250 
237.942017 68.018456 153.846481 
237.016724 70.234596 152.950790 
238.337830 67.037018 157.128723 
253.086334 16.940483 187.069473 
252.778961 18.451345 186.145630 
227.879639 89.435532 150.262909 
253.876495 12.061354 180.828293 
232.064468 81.010048 143.746643 
230.862885 83.528564 143.982361 
232.130905 80.872833 145.881210 
254.537140 7.617841 179.234756 
254.361710 8.755614 176.405960 
231.647903 81.951065 126.005997 
230.750519 83.818024 125.879997 
230.340118 84.563873 129.663803 
254.602310 6.511042 214.100571 
254.408188 7.976662 216.983002 
254.758789 5.337210 218.734253 
235.605820 73.433701 135.980484 
236.140549 72.265694 133.544601 
235.041550 74.727135 131.630814 
255.138901 2.271459 215.870590 
255.592545 -1.277250 217.693237 
255.118927 2.727164 212.402084 
237.490234 69.156578 122.530205 
236.413040 71.690720 122.060349 
236.590454 71.226242 126.321251 
254.567017 6.913428 210.342407 
254.222031 9.523682 215.039795 
238.636108 66.437538 132.141220 
238.995087 65.733566 132.710938 
239.065826 65.414818 131.486542 
254.324203 8.911107 207.136749 
254.159027 10.205455 210.618240 
247.157532 41.871246 145.000854 
246.642654 43.525841 144.131134 
247.105408 42.003864 146.853470 
254.656128 6.404769 206.525055 
254.976532 3.738992 208.918274 
254.974106 3.721729 206.616638 
246.058334 45.404938 145.148697 
247.015686 42.307926 142.230347 
254.673218 6.335342 202.054214 
254.826401 5.312172 203.798599 
241.409485 59.158073 129.070343 
242.392944 56.459316 126.783211 
241.962524 57.522842 124.676079 
255.302322 1.368975 199.740356 
254.917908 4.703501 196.231567 
239.266403 65.047867 132.625610 
239.713959 63.714539 133.782730 
239.798615 63.452183 132.177643 
255.608490 -1.326159 199.378647 
255.323013 1.283505 202.245773 
240.002960 62.756866 126.954842 
255.182373 2.624665 186.044907 
254.869492 5.308318 188.135117 
239.715439 63.515965 122.750229 
238.515091 66.546799 124.409241 
254.553604 7.637891 184.766373 
254.526917 7.742074 187.046646 
238.195465 67.561737 134.480515 
237.966034 68.136162 133.670303 
237.524033 69.079498 134.669983 
255.140335 3.235408 183.162277 
255.445938 0.487127 183.146210 
239.021057 65.332565 117.628311 
238.278763 67.130089 119.662254 
239.292099 64.541786 119.247070 
254.864899 5.359164 185.518341 
238.706253 66.251068 129.316376 
237.882858 68.137253 129.419006 
238.001129 67.905701 127.761345 
254.933441 4.794721 173.522568 
254.969528 4.381726 170.682312 
254.735794 6.224249 170.218536 
239.859634 63.112183 124.127197 
255.302048 1.938600 177.765762 
255.123184 3.564866 180.358170 
255.589447 -0.908560 179.719101 
234.495819 75.932655 118.624588 
248.203323 38.129158 173.586090 
248.799164 35.913940 172.163589 
247.821121 39.454578 172.505173 
227.465179 90.157791 114.420815 
226.941574 91.230698 114.483749 
226.505768 91.954819 116.090553 
245.881104 45.945488 169.531403 
246.229141 44.729809 167.960907 
245.798920 46.210655 167.115311 
227.213547 90.504890 99.919739 
228.592728 87.941849 100.499992 
228.823471 87.459419 98.327629 
247.691864 39.934135 165.910843 
246.526505 43.806511 163.728836 
246.013718 45.558872 163.645630 
230.183151 84.985588 110.684082 
229.545074 86.186005 110.097702 
228.975815 87.276581 114.166267 
247.679764 39.900490 168.978165 
248.464706 37.267963 166.670914 
226.669662 91.473503 101.171875 
225.911163 92.935661 100.995583 
226.305893 92.199959 103.378105 
250.383194 29.709902 168.628632 
250.947769 27.153456 168.743683 
251.055679 26.847160 167.080780 
245.453888 47.418983 159.505936 
244.670929 49.793392 161.915558 
244.943481 48.988743 163.794571 
228.080933 88.827385 105.837074 
228.505249 88.061371 108.055054 
230.147324 84.917877 107.592255 
247.666565 39.943005 164.206390 
249.501587 33.183746 164.553299 
248.800064 36.104309 164.943619 
249.116745 34.705585 168.410156 
228.806747 87.492348 103.300133 
227.047531 90.842377 102.795097 
243.416199 53.733398 159.811249 
243.900528 52.240196 160.720352 
244.554565 50.235188 156.652527 
227.309036 90.342987 95.823326 
227.562943 89.945580 92.540268 
226.263550 92.315475 90.451157 
-227.375488 67.501755 307.734802 
246.308594 44.571033 156.911530 
246.224396 44.873333 161.539749 
246.828918 42.704681 158.531693 
236.564346 71.227608 99.691315 
237.567062 68.833046 99.399849 
236.736053 70.795937 96.867287 
251.705292 23.758772 168.644379 
231.037018 83.051575 87.882851 
228.889679 87.299782 88.958786 
229.993362 85.168571 91.561279 
247.761337 39.720943 153.965561 
247.374222 41.044968 151.980423 
246.893570 42.579815 153.070923 
229.123398 86.897354 93.720573 
228.640289 87.877365 95.171684 
250.188293 30.561039 153.838852 
250.344635 29.676752 156.198502 
250.690674 28.327732 151.498123 
226.984268 91.027206 89.762436 
226.460983 91.889694 87.460938 
249.778641 32.115875 177.813828 
249.383728 33.564964 181.262680 
250.406448 29.589762 179.396530 
254.517670 7.461489 146.111023 
254.558167 6.930487 148.813736 
254.836517 5.060949 148.845093 
250.907486 27.399956 172.262283 
250.649597 28.451988 171.042816 
250.258896 30.265434 173.276260 
254.993973 3.629035 137.531754 
254.309204 8.800800 137.901566 
254.907120 4.540736 139.730331 
251.314377 25.411943 169.909134 
252.552185 19.798109 150.984528 
252.234573 21.434235 149.294830 
252.185318 21.757492 151.440842 
252.547302 19.514214 174.314346 
252.375412 20.581642 178.533554 
249.878952 31.297649 112.564735 
249.445129 33.146645 110.317795 
249.197327 34.209156 112.369888 
-232.973633 53.073326 288.094055 
252.067963 21.954563 169.855698 
252.247330 21.158653 170.990982 
252.510513 19.812584 169.365387 
245.600555 46.455349 99.791122 
245.303909 47.450314 99.018272 
244.591705 49.693382 99.825233 
249.467010 32.992126 108.203011 
248.680038 35.966549 108.025658 
248.958740 35.043713 109.820244 
250.196045 30.429754 165.459183 
250.838028 27.765280 163.045715 
247.839493 39.283218 112.016800 
247.030060 42.108368 111.905083 
247.805649 39.318119 113.598267 
252.401062 20.502729 163.925797 
252.653030 19.065134 160.645050 
251.980576 22.327953 161.831497 
253.673004 13.126696 124.740326 
254.301453 8.848454 127.012962 
254.155029 9.853101 122.976906 
251.757614 23.537132 160.021667 
252.151093 21.599005 159.884140 
252.284622 21.099026 157.265259 
243.071274 54.448017 225.369308 
243.385513 53.542301 229.554947 
244.313812 50.907772 228.056870 
254.972534 4.074305 272.205872 
254.841736 5.312595 273.777710 
255.133423 2.936251 275.068665 
249.665085 32.477371 156.463760 
254.619995 7.013102 273.516541 
254.571167 7.232043 271.671692 
254.220474 9.440528 273.082458 
253.953156 11.254085 161.288681 
254.256393 9.432838 159.184738 
253.537323 14.016614 159.067291 
-181.572052 140.881149 161.878571 
251.754898 23.540581 165.057419 
254.445541 8.012982 220.328400 
254.040710 11.009699 218.123276 
254.167526 10.473660 222.892639 
253.792328 12.477014 157.291916 
253.552048 14.267462 225.892990 
253.938354 11.818474 226.336868 
253.930008 12.071394 223.866882 
245.690384 46.441326 151.531525 
245.305084 47.775291 154.598755 
246.673019 43.380035 154.044373 
249.807404 29.746937 399.415802 
249.997177 28.881203 397.995331 
249.469223 31.051712 397.791779 
244.633392 49.820053 150.742493 
247.506836 40.405891 223.077988 
246.918137 42.385921 224.189621 
247.894073 38.949757 225.646240 
246.538269 43.822258 148.520248 
246.089417 45.269062 147.539124 
245.539749 47.137329 148.918747 
244.800888 49.262455 198.775803 
245.032471 48.660133 197.561920 
244.005814 51.837990 198.218262 
244.925247 49.023148 143.411850 
245.202332 48.069141 141.739426 
244.695740 49.650642 140.733139 
248.424225 37.146400 210.891327 
247.512619 40.326313 209.810989 
247.359436 40.900085 215.319443 
246.842743 42.931988 140.814301 
246.394196 44.301041 140.686142 
249.082016 34.579327 221.458145 
248.536926 36.668053 223.312271 
249.091919 34.580376 223.282150 
245.738693 46.504459 143.414230 
245.806763 46.208809 140.966553 
254.662567 6.344613 269.942657 
254.461624 8.035949 268.401031 
254.397690 8.434516 269.249268 
247.174866 41.819336 139.570374 
246.718643 43.231575 137.993683 
245.003281 48.774387 191.421341 
244.157227 51.419796 189.999985 
244.454437 50.460438 194.315155 
247.420868 40.797852 136.400986 
247.666885 39.908455 179.481079 
247.392532 40.860493 177.786163 
247.014999 42.329945 178.471542 
253.606155 11.978539 385.335388 
253.408127 12.800124 383.562500 
253.271774 13.789455 384.828430 
247.819687 39.310387 132.672791 
248.391403 37.324745 132.582993 
247.742584 39.709576 129.910599 
252.778137 18.313389 181.725784 
247.924805 39.043652 122.001251 
247.913925 39.143585 125.724709 
248.311722 37.720886 125.821205 
250.821060 26.183584 374.377472 
250.697083 26.738983 372.585999 
250.455704 27.476448 374.899780 
247.110275 41.964039 127.384415 
247.419556 40.771748 125.421440 
248.776520 35.063347 331.701752 
249.347229 32.730721 330.855865 
248.838303 34.869537 329.343811 
246.796036 42.898346 132.881409 
246.853989 42.697399 129.997131 
245.977203 45.594288 131.537399 
240.456802 60.549332 368.612396 
241.338089 58.104179 371.616669 
241.691849 57.242359 368.918213 
246.116348 45.168541 128.967056 
239.625198 62.740967 369.356079 
239.848694 62.201084 372.179871 
-231.421051 57.187862 295.547485 
249.711411 32.375530 137.283859 
250.529938 28.955248 135.656097 
249.817444 31.988792 133.493820 
244.658539 49.095367 320.952362 
244.756638 48.814922 317.786011 
244.132767 50.764931 317.242035 
248.794098 35.802338 126.384209 
248.243103 37.864117 128.767822 
249.569077 32.882404 130.599716 
242.577911 54.367657 401.224121 
243.433929 52.127419 402.632507 
243.112778 53.084034 398.846924 
250.330536 29.831841 127.571251 
250.016464 31.034479 128.611252 
250.054428 30.712168 129.074478 
243.830109 51.045807 397.987274 
251.479401 24.799606 150.378479 
251.191513 26.150002 149.394547 
242.210480 55.400223 399.677399 
242.574997 54.410538 399.500641 
242.507187 54.794857 398.351929 
250.237030 30.319468 141.307281 
250.327499 29.914640 144.320694 
250.605438 28.703901 142.503128 
247.464935 39.042538 379.353302 
248.036530 37.164345 380.473297 
247.932053 37.587570 378.506531 
253.100937 16.436728 141.862991 
252.823593 18.140734 139.965988 
252.790955 18.476694 142.590515 
242.719772 54.380032 360.102753 
243.266617 52.822498 363.919983 
243.455475 52.271431 360.688446 
251.922791 22.902855 144.560303 
251.933411 22.845549 146.771820 
252.436951 20.380030 145.101425 
245.046310 47.298157 373.385040 
244.538284 49.049370 371.225616 
244.812302 48.208023 374.745667 
251.512772 24.406666 142.812561 
251.392258 25.270037 146.352631 
253.008865 17.357521 178.526779 
252.038712 22.245548 143.805649 
251.899414 22.620815 141.466019 
252.522949 19.994665 167.225906 
252.902969 17.898783 166.063721 
245.839462 46.064911 134.646866 
253.011978 17.199261 143.517838 
254.043640 10.716908 140.397217 
253.818298 12.245246 134.876831 
253.203201 16.058495 153.418549 
253.381683 14.940251 156.636353 
253.546295 13.851931 154.604782 
250.310181 29.813471 170.737900 
253.017166 17.187052 149.774338 
253.394257 15.210619 149.291779 
254.654373 6.796166 173.880432 
253.996918 11.336430 174.018158 
253.446625 14.348482 142.993225 
253.607178 13.609064 140.279678 
254.890594 5.052439 154.055969 
255.107590 3.250349 153.338501 
254.986221 4.114564 150.998199 
250.972519 26.874268 137.488312 
250.788971 27.685871 139.204666 
251.369354 24.916220 140.200912 
254.359833 5.909049 391.024414 
254.479813 5.244466 388.545746 
254.113586 7.894307 390.193085 
252.307343 20.720621 137.517258 
251.771957 23.212971 137.154770 
251.858658 22.719999 139.337418 
252.070374 20.086704 362.143341 
252.589188 17.397898 367.255585 
252.641571 17.092819 361.852051 
251.148346 26.167240 131.292816 
250.866348 27.450691 127.359535 
250.457397 29.211250 129.849625 
251.585617 22.634613 387.412506 
251.305801 23.717710 390.756378 
252.056870 20.363522 389.119110 
252.276993 20.617285 134.139038 
252.342773 20.299223 132.210754 
251.905640 22.546930 131.648636 
-229.501099 61.003922 391.368134 
243.465591 52.800301 308.719940 
244.017822 51.092873 308.536407 
244.032349 51.190228 306.669373 
251.539215 24.350906 128.593155 
248.751816 35.839020 255.798355 
248.404175 37.237278 252.795715 
247.857483 39.199715 254.665527 
251.104813 26.465843 126.178955 
246.613144 43.411488 283.171814 
246.929596 42.297802 284.778931 
247.835815 38.959606 282.987488 
253.110336 16.310642 123.101372 
253.234009 15.548172 121.594872 
252.882629 17.732771 121.430260 
255.169403 0.688960 349.873138 
255.178284 0.530274 352.445587 
255.425659 -1.870787 352.562408 
252.856033 17.870960 133.566559 
253.001328 17.034344 136.305313 
253.171783 16.190636 133.496521 
254.700317 3.092251 396.771271 
254.308578 5.988359 396.929535 
254.762924 2.517000 398.423645 
253.083313 16.717796 128.303177 
252.844086 17.847704 127.105614 
252.699661 18.583899 128.104813 
236.130463 72.284370 115.143456 
236.043533 72.477058 113.606468 
235.421066 73.862076 115.182526 
254.302887 8.777819 143.628647 
254.570679 7.063168 142.418518 
249.307922 31.848854 391.586365 
249.191177 32.464478 389.082794 
248.984543 33.278893 392.070129 
255.226883 2.288958 162.262558 
255.223373 2.148531 159.390091 
254.934280 4.517533 159.314651 
248.974304 32.847115 400.738892 
249.464081 30.931059 401.980652 
254.609268 6.939170 155.619537 
247.787704 38.015766 374.834717 
247.587891 38.743057 377.282440 
255.449661 -0.071479 161.349899 
249.604660 30.893362 382.900177 
249.184082 32.665730 383.937988 
249.688644 30.503263 386.447479 
254.770447 5.788478 152.516098 
254.625687 6.505308 152.037277 
254.245850 9.469490 153.758713 
249.740234 30.197985 390.669128 
249.888275 29.619226 392.356140 
250.448730 27.443115 391.253052 
255.456131 0.174762 150.017929 
252.957504 15.080723 384.690399 
252.812027 15.774714 384.536102 
252.855148 15.797837 385.546631 
255.261627 1.586644 138.368896 
255.320740 0.850601 134.874344 
249.861954 30.252016 357.048340 
249.655304 31.029331 359.901917 
250.454636 27.778603 360.974213 
255.446869 -0.332466 129.769989 
255.126617 2.274779 127.948898 
254.889862 4.336246 132.467468 
251.079437 25.042763 374.213043 
243.974121 51.855850 122.390648 
244.094437 51.518009 124.802795 
244.607971 49.889957 122.008720 
248.960678 33.487709 373.459869 
249.278229 32.148010 376.046936 
250.059036 29.179426 371.006226 
245.763107 46.325912 126.573593 
247.013718 42.187637 124.867226 
246.559174 43.608013 122.609962 
246.795349 41.589001 373.844299 
247.176849 40.291977 375.285767 
247.454590 39.264359 371.555084 
246.199478 44.828220 120.147301 
246.031723 45.419601 117.721519 
245.122498 48.339863 119.403305 
-242.467590 17.139889 280.090363 
247.109314 40.404778 369.128296 
248.427826 35.589439 367.288574 
245.800293 46.051205 115.896935 
245.982727 45.463230 113.746170 
245.477005 47.211987 114.393707 
248.851837 34.328407 364.002716 
249.259262 32.596539 366.669098 
249.399216 32.036350 362.028748 
247.318314 40.977470 108.668922 
248.944351 33.733730 359.191925 
247.184525 41.635857 115.878120 
246.476242 43.879787 115.463173 
-245.072403 -0.480238 275.169495 
250.819870 26.193268 370.328491 
246.709259 42.979828 107.938026 
246.307816 44.392456 110.030449 
248.648987 35.061996 352.921661 
248.573608 35.287991 355.531616 
249.339081 32.402969 354.361755 
249.861008 31.466307 119.662018 
249.619843 32.460011 122.057693 
250.603500 28.617949 123.002274 
-245.190292 0.312881 260.407257 
-245.170547 0.530047 259.165344 
248.660538 34.902706 351.023682 
249.423019 31.974829 352.021240 
250.066101 31.041361 126.409760 
249.942810 31.507738 128.152405 
245.989410 44.522129 350.700989 
247.295868 40.109558 352.777924 
246.711227 42.195232 348.644348 
249.229462 34.247375 134.169098 
249.255569 34.213268 131.970657 
251.160950 24.437799 389.570557 
251.637787 23.956448 125.393951 
251.350876 25.311071 124.574905 
251.121185 24.529202 387.687042 
250.638916 26.596586 388.069489 
245.050507 48.512394 115.313568 
247.705597 39.654709 115.259796 
252.381943 18.595623 388.677917 
252.114349 20.052761 386.493225 
248.926788 35.189964 113.634758 
248.478668 36.863274 112.352791 
251.712112 22.138458 384.313171 
252.163635 19.788137 390.069214 
252.082062 20.025229 392.311707 
245.688629 46.348175 107.241631 
246.065353 45.224995 106.327477 
245.370499 47.282227 104.751984 
254.105301 8.160928 392.512909 
254.194260 7.000409 394.409363 
254.460632 5.096742 391.831360 
247.640884 39.713322 101.732437 
246.809158 42.591209 101.198341 
247.226456 41.229736 105.527092 
253.701385 10.863412 394.613373 
253.911621 9.738822 390.936798 
247.419296 40.737064 123.305183 
246.972122 42.292297 119.782715 
251.402634 23.511816 379.029663 
251.373322 23.662411 381.641174 
251.946945 21.068420 381.320709 
250.137543 30.344967 105.007507 
249.960892 31.272377 104.909828 
250.032700 30.895821 106.968262 
252.878632 16.042210 387.114410 
252.886627 16.083719 388.860168 
253.272461 14.042059 387.012299 
248.379150 37.076237 104.802414 
247.742462 39.297802 105.238968 
247.998596 38.397736 107.584015 
253.340424 13.293060 390.142456 
253.639053 11.383387 392.036865 
253.749329 10.601638 389.219910 
249.570038 32.550213 114.907188 
252.942688 15.372484 383.391632 
250.921036 27.173687 124.575317 
253.131119 14.716362 386.307587 
250.069122 30.609409 117.168175 
250.697235 28.263664 118.898026 
252.097931 21.757246 128.195282 
254.254547 7.388009 387.742279 
253.382431 14.874961 120.026604 
253.969666 9.222079 389.567627 
252.564774 19.385212 120.019066 
252.690567 18.537416 122.945457 
253.775208 10.638426 387.891785 
253.522079 12.436025 388.021149 
250.631699 28.226856 115.114922 
251.047272 26.655539 117.586075 
251.301498 25.122261 112.121094 
252.751144 16.625200 380.737793 
252.629257 17.286774 382.873260 
253.072830 14.870056 382.429016 
254.465256 7.604039 121.932785 
254.319763 8.322956 120.303772 
254.367340 6.411875 385.521667 
253.795273 10.288322 383.531921 
253.925385 9.761666 386.224152 
252.836365 17.991764 118.742645 
251.439224 23.325319 364.212524 
251.370636 23.695557 361.891907 
253.363815 14.926133 123.946381 
240.673553 59.635174 396.869537 
240.678741 59.695255 393.390106 
239.821594 61.875751 396.042511 
253.851089 12.032697 127.147285 
252.331116 18.749411 360.582825 
252.257553 20.890364 122.805397 
252.039612 20.223261 367.483276 
252.085495 20.131889 365.218201 
254.597748 6.793699 125.224350 
252.176880 19.595879 374.607208 
252.552094 17.753365 374.306000 
251.846588 21.208279 371.238434 
253.120468 16.267544 118.100037 
253.082458 14.759138 365.519348 
253.580872 11.747118 366.865082 
253.708389 10.864056 365.153473 
252.537201 19.366760 117.524048 
246.386047 42.991253 400.718262 
246.191620 43.658249 400.887177 
246.121811 43.618652 401.879089 
252.839996 17.702831 115.377289 
253.132507 16.040995 114.064087 
246.291931 43.321804 400.051849 
254.489502 7.607501 115.821495 
254.206284 9.684484 115.992828 
254.302429 8.793859 117.194031 
253.991257 10.823428 113.587753 
254.237793 9.420558 114.606987 
254.296677 8.719987 113.328690 
245.691330 45.038986 398.971985 
245.747345 44.955231 395.726532 
245.093369 46.932106 397.771332 
253.257645 15.103940 110.173813 
253.541794 13.446988 108.507164 
253.141602 15.922987 107.205688 
246.604340 41.973225 401.604858 
252.055939 21.698633 110.873283 
252.314651 20.473841 113.694283 
252.492981 19.347050 110.353172 
247.172928 40.140278 388.127930 
246.099747 43.805435 384.916260 
246.603699 42.053696 388.200745 
251.663284 23.804518 122.289795 
251.959198 22.338848 120.427673 
251.661163 23.840548 118.048782 
249.960922 29.987490 349.696381 
250.262558 28.661430 353.732086 
252.684921 18.401230 113.750679 
247.639526 38.596794 387.788910 
247.193665 40.023869 384.318970 
248.968643 33.480473 377.986755 
250.057434 28.989935 379.469971 
251.578156 23.678617 110.581230 
251.689163 23.538570 114.508629 
246.939453 41.153099 359.285614 
246.606689 42.409832 359.780640 
246.553024 42.394630 362.130829 
251.935043 22.167126 108.580956 
251.207108 25.379368 108.069908 
254.797928 1.920802 395.183563 
255.046082 0.274765 397.484344 
254.667191 3.930072 386.044525 
254.904968 2.029001 384.087799 
254.641220 4.181860 382.241669 
252.156418 21.295057 115.805023 
254.503754 5.532434 374.403870 
254.347610 6.410786 378.859497 
254.781540 3.430480 377.560394 
254.099060 8.421143 369.721741 
253.698410 11.069123 371.662140 
254.091187 8.252701 373.039856 
249.802872 31.498072 95.805664 
249.850006 31.395920 99.814568 
250.482239 28.786100 96.848083 
250.708572 27.783863 105.298248 
250.469620 28.744421 104.175629 
250.376953 29.192078 105.961418 
253.089401 14.782900 369.577026 
246.215286 43.664093 351.978760 
251.025497 26.439837 104.089691 
250.686768 27.882917 107.055283 
251.396515 24.739239 106.027596 
244.945221 47.735916 352.925018 
244.658447 48.520485 353.672699 
253.137695 14.682050 316.925201 
253.290924 13.899438 318.770844 
253.567581 12.025777 316.696075 
252.651978 18.607231 106.367966 
252.766861 17.769316 105.006752 
252.161285 21.073442 105.324188 
248.364120 36.234997 348.514191 
247.784714 38.465652 351.320862 
253.738358 12.479429 106.072098 
253.791641 12.063235 107.029465 
254.173965 9.298160 107.417191 
-243.345673 7.834796 401.946289 
-243.778564 4.981894 402.938751 
-243.490753 6.697194 404.236084 
252.800186 16.902306 333.012146 
252.319305 19.420166 334.266235 
252.853958 16.581924 335.237396 
252.373413 19.828251 102.403389 
251.553345 23.973940 103.752281 
253.591400 11.810143 345.293304 
253.618805 11.713351 347.701721 
253.988266 9.255260 346.428589 
253.093185 16.135939 111.257965 
253.360428 14.855310 113.045174 
-231.248596 56.223042 391.875458 
250.673416 27.448666 328.418915 
250.256653 29.249432 325.990509 
249.824219 30.936647 328.233063 
253.467758 13.933781 111.864189 
254.811478 3.991440 342.563293 
254.767456 4.017834 341.105377 
254.530853 6.012880 341.623260 
252.322739 20.503101 107.064369 
250.430359 28.799255 322.160095 
250.622482 28.092194 321.100769 
250.386169 29.135336 319.683258 
253.570389 13.584623 116.779091 
253.889130 11.493729 118.785004 
253.725952 12.378893 116.412491 
254.350143 7.415919 307.350098 
254.550232 5.993263 306.901794 
254.545273 5.687381 304.544556 
253.499359 13.811513 113.746902 
254.355270 7.253670 321.816833 
254.621933 5.175385 321.981384 
254.430466 6.645698 320.594513 
253.763794 12.009972 102.788376 
253.664658 12.899946 101.688278 
253.404877 14.212539 101.794243 
254.408524 6.501752 319.425568 
254.220718 7.664124 318.915131 
254.185760 8.061893 319.935638 
254.705185 5.479644 107.821793 
254.335464 8.135784 105.669380 
241.260117 59.101109 311.781677 
240.424942 61.262280 310.888000 
240.861923 60.129158 314.822845 
254.732224 5.767226 112.800545 
254.586182 6.645567 113.579170 
254.720474 5.807144 114.512573 
245.930573 45.384014 305.000122 
245.307816 47.365952 303.170135 
